ply
format ascii 1.0
element vertex 867
property float x
property float y
property float z
property uchar red
property uchar green
property uchar blue
end_header
  -0.0158  0.014715 0.0115007 0 255 0
  0.985742 -0.0308244  0.0218623 0 255 0
  1.01748 -0.032502 0.0231295 0 255 0
   1.05271 -0.0352514  0.0236138 0 255 0
   1.08723 -0.0380025  0.0242095 0 255 0
    1.1216 -0.0394205   0.025479 0 255 0
   1.15372 -0.0403423   0.027155 0 255 0
   1.18848 -0.0410247  0.0279752 0 255 0
   1.22261 -0.0413606   0.028439 0 255 0
    1.2574 -0.0446066  0.0292485 0 255 0
   1.29295 -0.0441453  0.0301115 0 255 0
   1.32571 -0.0461693  0.0321887 0 255 0
   1.35971 -0.0469419  0.0338377 0 255 0
   1.39513 -0.0490139   0.034242 0 255 0
   1.42884 -0.0512831  0.0347037 0 255 0
   1.46238 -0.0520657  0.0371669 0 255 0
   1.49616 -0.0522318  0.0406782 0 255 0
   1.53089 -0.0526498  0.0413094 0 255 0
   1.56449 -0.0524503  0.0428909 0 255 0
   1.59915 -0.0547597  0.0450793 0 255 0
   1.63609 -0.0584555  0.0446416 0 255 0
   1.66923 -0.0570745  0.0478681 0 255 0
0.0475989   8.42846   29.5117 255 255 255
2.75675 8.48186   29.88 255 255 255
10.7806 8.37056 28.6928 255 255 255
5.40901 8.41771   28.82 255 255 255
11.1269 8.41402 28.4828 255 255 255
12.8573 8.33973 28.5214 255 255 255
1.09647 8.25095 26.9836 255 255 255
4.40473 8.30467 27.6576 255 255 255
7.16093 8.29849 27.5323 255 255 255
1.88281 8.27582 27.0955 255 255 255
11.3163 8.39153 26.8697 255 255 255
1.56207 8.17109 26.1306 255 255 255
10.7667 8.33937 26.4948 255 255 255
 6.0061 8.19147 24.4986 255 255 255
12.1503 8.21892 24.9639 255 255 255
-1.27365  8.02645  23.5142 255 255 255
0.472281  8.01397  22.9687 255 255 255
-2.47373  7.96262  22.7145 255 255 255
10.6196 8.29334 24.0702 255 255 255
-1.87849  8.01363  22.6846 255 255 255
 3.5602 8.09459 23.0239 255 255 255
-3.35559  7.93419  22.0844 255 255 255
12.6186 8.21136 23.4405 255 255 255
14.1203 8.21803 23.2458 255 255 255
12.9455 8.23895 22.9757 255 255 255
  13.54 8.24649 23.2428 255 255 255
7.11276 8.10813 22.3067 255 255 255
11.3352  8.1548 22.6512 255 255 255
16.8854 8.21994 22.8241 255 255 255
-3.06648  7.99324    21.62 255 255 255
-2.47501  7.92386  21.5359 255 255 255
-1.19054  7.98624  21.6137 255 255 255
1.50575 8.06926 21.7202 255 255 255
15.2508 8.23663  22.344 255 255 255
-1.63632  7.95567  21.2547 255 255 255
7.14331 8.08408 21.7132 255 255 255
-2.28737  7.98112  21.1157 255 255 255
5.20626 8.03433 21.0406 255 255 255
0.704321  8.03045  21.0154 255 255 255
2.71568 7.99191 21.1311 255 255 255
6.29787 8.03953 20.7366 255 255 255
15.3164 8.14607 21.0599 255 255 255
3.40592 7.93079 19.5857 255 255 255
-2.67755  7.82358  18.9456 255 255 255
7.37505 7.95895 19.2991 255 255 255
11.3441 8.11852 19.7801 255 255 255
15.0407 8.17142 19.9433 255 255 255
-0.470804    7.8304   18.5826 255 255 255
0.412609  7.87669  18.5112 255 255 255
7.31604 8.03385 18.9225 255 255 255
-2.22105  7.82476  17.9882 255 255 255
4.28848 7.92732 18.1601 255 255 255
 3.5729 7.88824  17.859 255 255 255
3.31314 7.90634 17.8463 255 255 255
5.51063 7.90446 17.8729 255 255 255
13.3789 8.04656 18.2615 255 255 255
3.75742 7.92794 17.7157 255 255 255
-3.60493  7.71683  16.9895 255 255 255
13.1553 7.99813 17.7338 255 255 255
-0.00100273      7.7823     16.8823 255 255 255
-2.08323  7.68627  16.3054 255 255 255
7.11481 7.78476 16.7605 255 255 255
0.808842  7.73777  16.4374 255 255 255
1.45292 7.80144 16.5009 255 255 255
 -2.254 7.68326 16.1274 255 255 255
-3.82446  7.65481  15.9425 255 255 255
 3.5441 7.79806 16.4227 255 255 255
-1.78707  7.67854  15.8328 255 255 255
 5.1784 7.85573 16.3375 255 255 255
5.49325 7.87879 16.4091 255 255 255
10.9622 7.98315 16.7208 255 255 255
-2.88517   7.6901  15.7473 255 255 255
0.925255  7.72388  15.8858 255 255 255
2.21786  7.7511  15.976 255 255 255
6.65175 7.82359 15.8102 255 255 255
3.40626 7.80572  15.632 255 255 255
-0.687285   7.69089   15.2545 255 255 255
8.70819 7.95621 16.0985 255 255 255
0.607155  7.73282   15.277 255 255 255
9.11503 7.91636 15.7473 255 255 255
-3.6794 7.62378 14.9978 255 255 255
-1.66359  7.63462  14.7353 255 255 255
-1.15076  7.62261  14.5381 255 255 255
10.1514 7.87313 15.1244 255 255 255
6.29737 7.86306 15.1697 255 255 255
-0.0333512    7.68287    14.4483 255 255 255
-1.34545  7.60529  14.1302 255 255 255
5.47871 7.80311 14.6896 255 255 255
-0.991057   7.64233   14.0778 255 255 255
8.02094 7.85388  14.691 255 255 255
7.31592 7.84088 14.6237 255 255 255
-3.05228  7.54899  13.7844 255 255 255
  8.397 7.82526 14.5508 255 255 255
3.99724 7.73457  14.178 255 255 255
-1.01275  7.60988  13.5672 255 255 255
6.00729 7.78401 14.0503 255 255 255
-1.81474  7.54341  13.3283 255 255 255
4.83659 7.76389 13.9049 255 255 255
0.752568  7.59805  13.4185 255 255 255
-1.03151  7.59648  13.2769 255 255 255
-2.45479  7.52165  12.8258 255 255 255
-1.49027  7.53499  12.8159 255 255 255
4.17315 7.70834 13.1774 255 255 255
-2.78063  7.50025   12.621 255 255 255
-0.388366   7.58906   12.8264 255 255 255
2.19462 7.55131 12.5355 255 255 255
-1.84697  7.51228  12.3159 255 255 255
-3.96099  7.46952  12.1687 255 255 255
-1.9816 7.49443 12.1239 255 255 255
-1.20379  7.52981  12.1998 255 255 255
3.32979 7.67262 12.5081 255 255 255
-2.62646  7.44746  12.0018 255 255 255
4.16687 7.68055 12.5084 255 255 255
-2.14938  7.48981   12.046 255 255 255
-3.09516  7.46581  11.8909 255 255 255
 4.6498 7.65641 12.3481 255 255 255
-2.14429   7.4706  11.8239 255 255 255
0.236994  7.58503  12.0653 255 255 255
5.31791 7.72417 12.3884 255 255 255
-0.726989   7.52783   11.8664 255 255 255
1.52888 7.58919 12.0077 255 255 255
-2.32495  7.48009  11.6457 255 255 255
-1.04268  7.47962  11.6645 255 255 255
0.874941  7.54584  11.6918 255 255 255
4.82062 7.69138 11.9224 255 255 255
-1.19402  7.47295  11.4156 255 255 255
-1.3791  7.4872 11.4002 255 255 255
-0.735506   7.48339   11.3852 255 255 255
0.545463  7.54854  11.4977 255 255 255
7.01874 7.73927 11.9357 255 255 255
-3.56617  7.38628  10.9744 255 255 255
4.33765 7.67347 11.5942 255 255 255
1.82837 7.56634 11.3351 255 255 255
-2.63836  7.39514  10.9149 255 255 255
 1.8266 7.57374 11.0159 255 255 255
3.30308   7.603 10.9762 255 255 255
-1.69354  7.41233  10.5547 255 255 255
0.216906  7.48649  10.6388 255 255 255
-0.598542   7.45383   10.4513 255 255 255
1.34735 7.49704 10.3425 255 255 255
4.95473 7.61238 10.5929 255 255 255
4.31202 7.60095 10.4082 255 255 255
2.32255 7.54158 10.2367 255 255 255
2.31852 7.54619 10.0833 255 255 255
0.683478  7.47621  9.87605 255 255 255
3.64448 7.58557 10.1046 255 255 255
4.30633 7.61335 10.1337 255 255 255
0.602783  8.21254  30.0546 255 255 255
3.31354 8.49169 31.1129 255 255 255
-2.65964  8.31835  29.6302 255 255 255
-0.697203   8.41936   30.0618 255 255 255
 4.3556 8.64469 29.5692 255 255 255
8.49586 8.37207 28.8685 255 255 255
7.52649 8.43257 28.9834 255 255 255
3.02486 8.28981 28.0797 255 255 255
12.2392 8.35718 28.5404 255 255 255
8.62982 8.39429 27.4294 255 255 255
16.6355 8.39371 27.6477 255 255 255
2.32792 8.35496 25.6033 255 255 255
16.8512 8.55081 26.4739 255 255 255
 4.2923 8.27968 25.1168 255 255 255
9.45734 8.31546 25.0739 255 255 255
7.64661 8.18768 24.2533 255 255 255
3.24283 8.06886 22.9784 255 255 255
17.6541 8.15425 23.5982 255 255 255
8.84264 8.16589 21.9789 255 255 255
 2.4051 8.06754 21.0578 255 255 255
-2.82771  8.09099  20.3402 255 255 255
-2.48242   7.7576  19.2308 255 255 255
10.2842 8.04444 20.1523 255 255 255
6.18441 7.91491 19.5997 255 255 255
12.0683 8.17243  20.071 255 255 255
3.64833 7.89495 18.8505 255 255 255
10.9474 8.06371 19.2141 255 255 255
-0.23555  7.83875  18.0695 255 255 255
-3.38636  7.79678  17.7964 255 255 255
2.97541 7.87447 18.0359 255 255 255
11.4338 7.98225 18.5252 255 255 255
-2.22054  7.72668  17.2164 255 255 255
13.1425 7.99204 17.7041 255 255 255
0.489282  7.84777  17.1581 255 255 255
-1.87113  7.72196  16.5055 255 255 255
-1.58651  7.73965  16.5122 255 255 255
-2.66705  7.58848  16.1308 255 255 255
-3.80571  7.64401   15.898 255 255 255
-0.154268    7.7066   16.0103 255 255 255
7.21523 8.00198 16.7214 255 255 255
2.29556 7.70354 15.7788 255 255 255
-2.40859  7.60347  15.3252 255 255 255
-1.93189  7.67563  15.4714 255 255 255
8.84303 7.85002 15.8617 255 255 255
8.64737 7.92927 15.9986 255 255 255
 3.1306 7.78619 15.5828 255 255 255
2.68201 7.89991 15.7236 255 255 255
4.47699 7.84962 15.3757 255 255 255
11.6802 7.96629 15.8123 255 255 255
-3.4302 7.56806 14.5363 255 255 255
1.41076 7.76127 14.9867 255 255 255
-3.86384  7.51046  14.3055 255 255 255
-1.41818  7.62396  14.5991 255 255 255
5.44802 7.76413 14.6003 255 255 255
8.41255 7.80903 14.5302 255 255 255
-3.84931  7.49463  13.4185 255 255 255
0.93527 7.59216 13.6447 255 255 255
-3.03831  7.47019  13.1856 255 255 255
4.23364 7.73421 13.7893 255 255 255
8.02704 7.79341 13.7026 255 255 255
8.22837 7.72162 13.3938 255 255 255
-3.91891  7.52871  12.5583 255 255 255
5.21001 7.70494 12.9906 255 255 255
-2.50389   7.4482  12.3276 255 255 255
-3.56522  7.49432  12.3618 255 255 255
5.49893 7.71172 12.8607 255 255 255
8.48283 7.77127 12.8821 255 255 255
-1.21184  7.53606  12.2001 255 255 255
3.04929 7.69117 12.4493 255 255 255
7.42341 7.84019 12.7905 255 255 255
5.01617  7.6083 11.7867 255 255 255
4.65471 7.75101 11.7928 255 255 255
-3.02685   7.3826  11.0584 255 255 255
2.35384 7.57449 11.4284 255 255 255
7.14328 7.65488 11.6488 255 255 255
0.206415  7.45688  11.1455 255 255 255
-1.85372  7.43385  11.0095 255 255 255
2.50525 7.60883 11.2644 255 255 255
2.84038 7.64229 11.2892 255 255 255
5.33432 7.68533  11.292 255 255 255
-1.69375  7.40573  10.5539 255 255 255
7.19385 7.70904 11.1944 255 255 255
3.07631 7.62874 10.9282 255 255 255
6.12975 7.71614 11.0317 255 255 255
-3.15363  7.33009  9.93224 255 255 255
2.15283 7.56773  10.315 255 255 255
0.691927  7.46912  10.1229 255 255 255
1.34383 7.50935 10.1487 255 255 255
3.64931 7.56422  10.274 255 255 255
0.51561 7.46062 9.97695 255 255 255
3.35371 7.49882 10.1119 255 255 255
6.16282  7.6887 10.4111 255 255 255
-3.35459  7.97079  22.2791 255 255 255
14.1962 8.26748 23.4057 255 255 255
-0.449982   7.95942   21.9229 255 255 255
 7.0765 8.07703 22.3055 255 255 255
1.45569 7.99932  21.461 255 255 255
-1.61531  7.97329  21.2539 255 255 255
 7.1283 8.10675 21.6895 255 255 255
-2.27452  7.70177  16.1279 255 255 255
3.42491 7.76833 15.5898 255 255 255
0.620796  7.78195  15.2953 255 255 255
-1.13165  7.61482   14.564 255 255 255
-0.951928    7.6432   14.0758 255 255 255
-0.187979   8.18107   30.0791 255 255 255
0.585578  8.21143  30.1507 255 255 255
3.29213 8.32376 30.7351 255 255 255
10.9048 8.12335 29.8077 255 255 255
7.23941 8.24998 29.7925 255 255 255
-2.65662  8.51915  29.9605 255 255 255
-0.749595   8.46424   29.8466 255 255 255
1.14469 8.39076 29.2627 255 255 255
6.57899 8.43923 28.9418 255 255 255
4.38108 8.51038  29.022 255 255 255
8.55957 8.49899 29.1308 255 255 255
2.76518 6.91684 23.6708 255 255 255
7.50353 8.45323 28.8195 255 255 255
5.73424 8.22874  27.261 255 255 255
11.9642 8.25468  27.946 255 255 255
18.1482 8.50876 28.5795 255 255 255
15.7879  8.6022 28.6528 255 255 255
16.7468 8.35267 27.7619 255 255 255
8.47783 8.23737 27.0014 255 255 255
-3.54469  8.19533  25.7483 255 255 255
10.2997 8.32064 26.4718 255 255 255
15.8257 8.52937 26.8489 255 255 255
2.35056 8.39811 25.7319 255 255 255
4.26179 8.32792 25.3411 255 255 255
16.4728 8.41069 25.9635 255 255 255
9.26033 8.21303 24.7108 255 255 255
0.0347308   8.07851   24.0334 255 255 255
7.66445 8.09807 24.0504 255 255 255
-0.458078   8.09324   23.6928 255 255 255
15.4094 8.42706 25.0239 255 255 255
12.3837 8.25382 23.8315 255 255 255
3.22262 8.11373 22.8998 255 255 255
7.88298 8.01545 21.9954 255 255 255
-1.60545  7.94207  21.1592 255 255 255
9.36658  8.1545 21.9037 255 255 255
7.11304 8.08966 21.6393 255 255 255
8.77937 8.18096 21.8886 255 255 255
-3.62277  7.95197  20.8822 255 255 255
2.41445 8.10468 21.1958 255 255 255
15.5373 8.22517 21.9047 255 255 255
11.7799 8.13322 20.9931 255 255 255
-3.7457 7.85649 19.8102 255 255 255
-0.901716   7.75134   19.5877 255 255 255
12.8026 8.08924  20.317 255 255 255
9.44301 8.10704 20.1563 255 255 255
11.1581 8.17123 20.1278 255 255 255
-3.39777  7.78868  18.6722 255 255 255
11.8969 8.08002 19.7297 255 255 255
3.58289 7.70795 18.5277 255 255 255
 11.034 8.09693  19.356 255 255 255
7.59166  7.8924 18.6801 255 255 255
1.91367  7.8229 18.1705 255 255 255
11.3007 8.17406 19.1978 255 255 255
11.6417 8.07541 18.8351 255 255 255
-3.38482   7.7029  17.5457 255 255 255
0.709979  7.89169   18.116 255 255 255
-0.218002   7.81117   17.9623 255 255 255
-1.94924  7.66246  17.4089 255 255 255
7.75772 7.91794   18.24 255 255 255
  2.998 7.83125 17.9898 255 255 255
3.55839 7.85666 17.8676 255 255 255
12.8214 8.12755 18.6848 255 255 255
4.79656 7.96022 17.7853 255 255 255
-2.28197  7.75194  17.2788 255 255 255
0.577155  7.65831  16.7194 255 255 255
-0.00304749      7.7558     16.7645 255 255 255
1.58815 7.85113 16.9223 255 255 255
7.19023 7.83835 17.0046 255 255 255
11.9996 8.00208  17.471 255 255 255
-2.66891   7.6785  16.3226 255 255 255
-1.57467  7.86562  16.6918 255 255 255
0.937975  7.84255   16.714 255 255 255
 8.4056 7.96786 16.8516 255 255 255
-0.156959   7.70609   15.9801 255 255 255
7.08511  7.8429 16.2667 255 255 255
2.29176  7.6712 15.6573 255 255 255
-1.95864  7.70552  15.5819 255 255 255
 1.5103 7.82131 16.0644 255 255 255
4.62606 7.81258 15.9615 255 255 255
 10.057  7.9573 16.3633 255 255 255
10.9597 8.02798 16.3682 255 255 255
 5.0779 7.78514 15.6371 255 255 255
8.81719 7.81531 15.7753 255 255 255
4.72804 7.77346 15.2237 255 255 255
1.43537 7.75298 15.0001 255 255 255
-3.37015  7.53795  14.4401 255 255 255
2.00287 7.60306 14.6946 255 255 255
-3.85882  7.53191  14.2888 255 255 255
-1.71192  7.64298  14.5168 255 255 255
8.97437 7.82134 15.0868 255 255 255
2.46297 7.73134 14.5303 255 255 255
7.76313 7.96307 15.2313 255 255 255
8.52026 7.85937  14.653 255 255 255
4.24377 7.84902 14.6669 255 255 255
1.88787  7.7326 14.2158 255 255 255
-3.87784   7.5786  13.6072 255 255 255
5.53306 7.78913 14.0824 255 255 255
-3.07283  7.50942     13.3 255 255 255
3.82971  7.7445 13.8038 255 255 255
-2.14411  7.55176  13.2624 255 255 255
-1.23376  7.69904  13.5242 255 255 255
5.05063 7.77163 13.7252 255 255 255
2.90938 7.71697 13.5233 255 255 255
  5.724 7.70811 13.5304 255 255 255
8.03409  7.7561 13.6972 255 255 255
-4.0528 7.46669 12.8804 255 255 255
-3.47403  7.51101  12.9459 255 255 255
-2.80978   7.5096   12.977 255 255 255
5.95503 7.74584 13.4769 255 255 255
3.99666 7.71378 13.3465 255 255 255
0.460664  7.64415  13.0585 255 255 255
-1.88576  7.50573  12.7155 255 255 255
6.11127 7.80401 13.3502 255 255 255
8.48841 7.75707 13.2085 255 255 255
-3.97168  7.63101  12.6353 255 255 255
3.05965 7.61945 12.7681 255 255 255
2.29707 7.64885 12.7767 255 255 255
-4.10723  7.43473  12.0006 255 255 255
6.49581 7.72351 12.7459 255 255 255
-1.20593  7.53283  12.1481 255 255 255
0.891907  7.57444  12.1587 255 255 255
7.36722 7.82937 12.7192 255 255 255
-2.41656  7.50982  11.9128 255 255 255
5.49217 7.66846 12.3428 255 255 255
7.63724 7.75553 12.3328 255 255 255
7.34934  7.7695 12.3451 255 255 255
-2.79368  7.41717  11.5123 255 255 255
-1.28386  7.48667  11.5993 255 255 255
2.80145 7.63693 11.8944 255 255 255
-2.28326  7.49532  11.5155 255 255 255
0.308185  7.51146  11.5845 255 255 255
-2.51685  7.53851  11.5095 255 255 255
1.71001 7.59141 11.6417 255 255 255
-3.04729  7.37935  11.1233 255 255 255
0.164794  7.50543  11.2617 255 255 255
2.38143 7.59555  11.507 255 255 255
5.59524 7.70063 11.6866 255 255 255
-1.85846  7.40356  10.9881 255 255 255
7.21603  7.7026 11.7195 255 255 255
-2.21161  7.40788  10.9312 255 255 255
2.54158 7.61374 11.2869 255 255 255
3.55489 7.60023 11.0816 255 255 255
5.33221 7.69225 11.2931 255 255 255
0.551767  7.51932  10.8544 255 255 255
2.09312 7.56791 10.9526 255 255 255
3.97918 7.61906 11.0718 255 255 255
-1.70313  7.42032  10.5793 255 255 255
-1.37071  7.44642  10.6385 255 255 255
3.30762 7.61654 10.9895 255 255 255
7.17835 7.70572 11.1772 255 255 255
3.07021 7.62302 10.9441 255 255 255
6.90005 7.74189  11.191 255 255 255
-3.74259  7.28942  10.2657 255 255 255
5.69515 7.63871 10.9635 255 255 255
6.31329 7.65215 10.9579 255 255 255
-3.2944 7.43913 10.4154 255 255 255
-2.84503  7.28573   10.196 255 255 255
1.83415 7.55057 10.6864 255 255 255
6.10355  7.7173 11.0125 255 255 255
-3.53464  2.92039  11.8151 255 255 255
2.17883  8.1727 30.2697 255 255 255
-1.05897  8.41289  30.0454 255 255 255
6.34227 8.65333 29.4499 255 255 255
 11.452 7.87347 26.5577 255 255 255
15.6969 8.62134 28.9106 255 255 255
10.0017 7.88995 25.8487 255 255 255
2.43643 8.95717 27.5999 255 255 255
3.29532 8.32383 23.4525 255 255 255
7.78775 8.24696 22.8761 255 255 255
-3.52369  7.83977    20.49 255 255 255
-1.0454 7.89656 19.9963 255 255 255
5.42483 7.94503   18.97 255 255 255
7.89372 7.87081 17.0546 255 255 255
-3.78787  7.57124  15.7801 255 255 255
-1.90456  7.51929  15.2258 255 255 255
-4.13027  7.60115  15.3864 255 255 255
2.02107 7.71294 14.9836 255 255 255
-2.49529   7.4807  11.4692 255 255 255
5.96987 8.38313 28.5962 255 255 255
-1.61486   7.5675  25.2804 255 255 255
8.43905 8.35469 27.7963 255 255 255
3.31446 8.49881 26.5479 255 255 255
-3.98914  7.75369  23.4697 255 255 255
 2.1621  8.3282 25.3435 255 255 255
2.52109 8.03398 24.0801 255 255 255
-3.61084  8.04034  21.3502 255 255 255
5.29117 7.77783 18.7468 255 255 255
-0.187622   7.80847    17.395 255 255 255
-4.22364  7.64422  15.5623 255 255 255
-3.17924  7.34049  13.8602 255 255 255
-4.03744  7.80086  14.3987 255 255 255
 7.8556 8.14982  27.193 255 255 255
-0.33252  7.86508  17.6707 255 255 255
8.02073 7.94274 17.1588 255 255 255
5.69853 8.14713 26.8993 255 255 255
7.82236  8.1116 27.0626 255 255 255
-1.76369  8.40623  28.4985 255 255 255
-2.74384  8.11977  26.6241 255 255 255
-4.09748 -1.12281  9.09405 255 255 255
  3.63836 -0.667313    29.817 255 255 255
  3.10016 -0.437731   29.4917 255 255 255
 4.26342 -0.30522  29.5222 255 255 255
  4.65417 -0.279281   29.6019 255 255 255
   4.45056 -0.0714157    29.4913 255 255 255
 4.46032 0.448406  29.5111 255 255 255
 3.40378 0.665354  29.4796 255 255 255
16.4139 3.56841 29.4981 255 255 255
3.85339 1.23824 29.6922 255 255 255
0.0301373    4.1005   30.2606 255 255 255
4.17456 1.44019 29.3937 255 255 255
6.78529 8.36621  27.191 255 255 255
-0.408218   7.98192   21.9082 255 255 255
1.81268 8.02072 21.5417 255 255 255
-3.91314  7.85553  20.6568 255 255 255
-2.79009  7.92499  19.9862 255 255 255
8.06025 8.02916 20.4297 255 255 255
8.16806 8.00992 19.8568 255 255 255
3.91838 7.94097 18.5526 255 255 255
4.81881 7.84052 18.3469 255 255 255
13.2813 8.03806 18.5084 255 255 255
2.67773 7.89249 17.7628 255 255 255
-1.90453  7.72461  17.0252 255 255 255
0.81835 7.81037  17.147 255 255 255
-1.87894  7.70326  16.4435 255 255 255
12.0824 7.98883 17.0226 255 255 255
-1.5994 7.69438  15.775 255 255 255
-0.835626   7.74024   15.6529 255 255 255
1.25038 7.76121 15.4464 255 255 255
 3.3821 7.75625 15.1757 255 255 255
-0.200133   7.65452   14.5755 255 255 255
2.72711 7.73287 14.5108 255 255 255
4.24583 7.77861 14.5812 255 255 255
-3.96355  7.60182  13.9829 255 255 255
3.68141 7.74848 14.4276 255 255 255
5.82413 7.76937 14.3402 255 255 255
-2.11408  7.60252  13.7713 255 255 255
 2.7092 7.71971 13.8096 255 255 255
4.65629 7.68906 13.4314 255 255 255
4.00409 7.68697 13.2967 255 255 255
6.17697  7.7461 13.4371 255 255 255
4.63566 7.66984 12.9011 255 255 255
-1.6778 7.53389 12.2179 255 255 255
 6.4733 7.72372  12.736 255 255 255
8.48291 7.77192 12.8825 255 255 255
-3.57176  7.41999  11.3368 255 255 255
-4.02656  7.44093   10.946 255 255 255
2.49433 7.60127  11.254 255 255 255
5.32876 7.67184 11.2769 255 255 255
1.83009 7.53155 10.6618 255 255 255
3.95859 7.58336 10.7068 255 255 255
0.682836  7.45289  10.1132 255 255 255
2.97518 7.57632 10.2642 255 255 255
3.63976 7.54229  10.227 255 255 255
3.46507 7.57478 10.2543 255 255 255
1.99856 7.55593 10.0939 255 255 255
-3.45508 -4.96399  30.5048 255 255 255
  3.83064 -0.524994   29.6364 255 255 255
 4.16265 0.111997  29.4685 255 255 255
 4.4572 0.43767 29.5057 255 255 255
 15.907 1.27998 29.5124 255 255 255
15.0051 2.55984 28.7513 255 255 255
17.4139 2.57828 29.6981 255 255 255
16.2628 3.23213 30.0408 255 255 255
 16.794 3.17818 29.5845 255 255 255
0.999533   8.1764  25.8996 255 255 255
16.8235 8.17602 22.7234 255 255 255
-1.18145  8.00534  21.6539 255 255 255
12.7594 8.08695 20.3009 255 255 255
7.58103 7.91419 18.7083 255 255 255
4.79859 7.97277 17.8412 255 255 255
-0.0201004    7.79108    16.8643 255 255 255
0.914589  7.75506  15.9834 255 255 255
7.79775  7.9655 15.3021 255 255 255
9.25457 7.86974 15.0171 255 255 255
-2.95909  7.52869  14.0244 255 255 255
7.75659 7.76094 14.5436 255 255 255
-4.06108   7.5072   12.927 255 255 255
3.64148 7.76761 13.2961 255 255 255
-1.86273  7.51252  12.6343 255 255 255
-2.97179  7.45872  12.4271 255 255 255
2.30021 7.64292 12.7658 255 255 255
3.04153 7.65442 12.8184 255 255 255
-2.09678  7.49969  12.3549 255 255 255
2.02647 7.69752  12.614 255 255 255
-2.81655  7.40704  11.9729 255 255 255
1.54672  7.6046 12.0339 255 255 255
7.66319 7.76313  12.323 255 255 255
0.877013  7.57489  11.7153 255 255 255
4.81285 7.67172 11.8966 255 255 255
 1.7068 7.58937 11.6286 255 255 255
9.29023 7.77105  12.005 255 255 255
8.91166 7.79283 11.8382 255 255 255
8.61846  7.7561 11.4861 255 255 255
0.550788  7.52658  10.9272 255 255 255
2.13158  7.6165 11.0537 255 255 255
3.51456  7.5561 11.0076 255 255 255
-3.73974  7.32935  10.3144 255 255 255
-3.11894  7.26766  10.1095 255 255 255
2.82015 7.58954 10.6938 255 255 255
8.36377 7.64031 10.7739 255 255 255
4.29914 7.56601 10.3531 255 255 255
 -3.744 7.30569 9.77687 255 255 255
2.97033 7.56431  10.254 255 255 255
5.48895 7.67021 10.4609 255 255 255
-3.1738 7.65593 15.5804 255 255 255
-2.80418  7.38472  11.9361 255 255 255
5.30263 7.73803  12.407 255 255 255
  4.21741 0.0201662   29.3788 255 255 255
  3.83622 -0.489753   29.5618 255 255 255
  3.8121 0.819045   29.451 255 255 255
4.80895 1.05424 29.3527 255 255 255
4.06016 1.28039 29.3345 255 255 255
16.9437  1.3895 29.9739 255 255 255
4.67959 1.65906  29.795 255 255 255
17.2558 1.63538 29.8621 255 255 255
17.5182 2.64229 29.9735 255 255 255
16.7975 3.10394 29.5655 255 255 255
16.2854 3.16906 30.1278 255 255 255
14.9327 2.55966 28.4248 255 255 255
-4.09296  3.50442  14.5252 255 255 255
-3.47921  8.52504  30.0857 255 255 255
0.990969  8.23921  26.3472 255 255 255
10.8946 8.29434 26.4398 255 255 255
-3.51607  7.92876  21.6995 255 255 255
-0.422719   8.03955   20.3823 255 255 255
-2.65962  7.92728  19.8466 255 255 255
6.08158 7.93893 19.5928 255 255 255
7.09425 7.96571 18.6292 255 255 255
4.72388 7.72584 16.8517 255 255 255
3.57204 7.87658 16.5874 255 255 255
-3.8238 7.70356 15.9575 255 255 255
1.18457   7.776 16.1864 255 255 255
6.17457 7.81674 15.7738 255 255 255
2.59971  7.8952 15.6115 255 255 255
6.51443 7.80065 15.2587 255 255 255
0.975571  7.63909  14.5663 255 255 255
5.96894 7.80111 14.9817 255 255 255
5.45089 7.74857 14.5442 255 255 255
-2.41307  7.58578  13.9207 255 255 255
0.282644  7.65368  13.8282 255 255 255
4.24774 7.72601 13.8658 255 255 255
4.34429 7.72498 13.4561 255 255 255
8.28438 7.76119 13.4746 255 255 255
-2.20257  7.54214  12.7693 255 255 255
3.61156 7.72314 13.2166 255 255 255
 2.6205 7.61248 12.9566 255 255 255
-0.344298   7.63872   12.7939 255 255 255
-2.52519  7.51938  12.3979 255 255 255
5.51721 7.69804 12.8605 255 255 255
-2.49061  7.17635  11.7588 255 255 255
7.73186 7.77932 12.9262 255 255 255
 8.8776 7.85067 13.0095 255 255 255
4.58538 7.77425 12.7344 255 255 255
-1.70111   7.4807  11.8419 255 255 255
-1.01522  7.49596  11.7005 255 255 255
9.09033 7.79177 12.2209 255 255 255
6.77003 7.71715 11.9435 255 255 255
5.25105 7.71434 11.6911 255 255 255
 4.0852  7.5988 11.4013 255 255 255
8.83363 7.73426 11.7163 255 255 255
-0.447595   7.46089   11.0378 255 255 255
-0.102394   7.46945   10.9414 255 255 255
7.63296 7.66811 11.2423 255 255 255
-1.0644 7.43568 10.6043 255 255 255
4.95843 7.66427 10.8836 255 255 255
-3.29017 -4.27877  31.3488 255 255 255
-3.81532  2.29029  13.8367 255 255 255
1.55239 7.98303 26.3305 255 255 255
7.82383 7.66881 25.4991 255 255 255
-1.48189  7.62564  20.6068 255 255 255
-0.125558   7.82086   17.2932 255 255 255
-2.60113  7.63992  14.8493 255 255 255
 -2.446 7.55275 13.8737 255 255 255
-3.15967   7.4016  11.2333 255 255 255
7.01563 7.70698 11.9134 255 255 255
6.99684 7.93756  18.616 255 255 255
5.64775 7.87077 14.1979 255 255 255
16.7899 2.70898 29.8213 255 255 255
15.7168 1.66366   29.16 255 255 255
 16.053  2.7393 29.6134 255 255 255
-3.65237  2.95901  12.4122 255 255 255
-4.18228  2.52509  14.7356 255 255 255
2.22832  7.7523 29.0352 255 255 255
1.83847 7.65198 16.3397 255 255 255
-2.06304  7.75384  15.6109 255 255 255
1.54802 7.68802 13.2387 255 255 255
-3.11325  8.28343  27.5525 255 255 255
2.64307 9.21357 27.8561 255 255 255
2.64049 9.06314 27.3633 255 255 255
-2.54905  3.60415  26.1511 255 255 255
-2.47832  3.31856  27.9234 255 255 255
4.79317 0.36098 29.3346 255 255 255
 6.3639 8.16955 27.9644 255 255 255
-0.862388   8.01638   26.0824 255 255 255
12.2722 8.16805  23.606 255 255 255
15.3371 8.25326 22.8551 255 255 255
10.0472 7.88731 19.5221 255 255 255
2.41293 7.86777 17.5956 255 255 255
2.84846 7.70289 14.0988 255 255 255
5.98073 7.76008 13.4967 255 255 255
1.48933 7.62593 13.0117 255 255 255
2.83678 7.67328    12.8 255 255 255
-1.02134   7.5184  12.2528 255 255 255
-2.77951  7.43767  11.5264 255 255 255
3.46106 7.57516 10.0661 255 255 255
-2.94968  7.51028  13.9904 255 255 255
4.00855  7.7333 14.1787 255 255 255
2.88718 7.69182 13.4922 255 255 255
8.55062 7.82918 13.2879 255 255 255
7.70867 7.80777 12.5648 255 255 255
 4.8293 7.74598 12.3143 255 255 255
-2.79558  7.45454  11.5614 255 255 255
4.64274  7.7291 11.7617 255 255 255
2.12995 7.60177 11.0334 255 255 255
2.29124 7.52196 10.4983 255 255 255
-0.454845    7.4866    10.321 255 255 255
0.0385833   7.43467   10.1069 255 255 255
 4.42349 0.794514  29.4875 255 255 255
4.85504 7.84799 14.0029 255 255 255
15.9812 1.37557 29.7334 255 255 255
2.28759 8.32537 30.4025 255 255 255
10.4856 7.98607 20.9578 255 255 255
4.82634 7.92028 18.5142 255 255 255
6.09835 7.78311 17.8171 255 255 255
-1.41202  7.60617  14.6105 255 255 255
-0.186561    7.6033   14.5077 255 255 255
0.950976  7.66661  13.7391 255 255 255
2.68067 7.68649 13.7476 255 255 255
1.51867 7.58515 12.9753 255 255 255
-3.03417  7.46876  12.5551 255 255 255
8.53138 7.81574 12.9572 255 255 255
3.48165 7.60997 11.7977 255 255 255
5.03647 7.59887 11.7734 255 255 255
6.12529 7.60318 11.3841 255 255 255
8.62416 7.68909 11.4564 255 255 255
8.06447 7.65115 11.1281 255 255 255
-0.602033   7.49027   10.4823 255 255 255
16.3276 2.96048 30.3439 255 255 255
16.5687 2.76191 29.0789 255 255 255
-2.93194   7.3897  11.6773 255 255 255
1.41025  7.8972 16.1498 255 255 255
5.11363 7.77475  13.691 255 255 255
-2.37401  7.48777  11.9328 255 255 255
9.93163 7.83577 25.5557 255 255 255
2.12548 7.78212 15.3689 255 255 255
-4.16224  3.02334  13.6212 255 255 255
-4.16112  2.88903  14.0295 255 255 255
-4.09694 -1.29188  8.45516 255 255 255
16.3962 8.24323 28.3087 255 255 255
1.55138 7.73828 15.3853 255 255 255
5.15321 7.77846 14.2562 255 255 255
5.50113 7.78182 14.0598 255 255 255
5.49156 7.72647 12.8597 255 255 255
-1.6896 7.56246 12.2608 255 255 255
-2.65731  7.44999  11.7667 255 255 255
-3.58116   7.4374  11.3615 255 255 255
2.01891 7.41071  10.769 255 255 255
3.97886 7.62279 11.0675 255 255 255
6.32183 7.67015 10.9694 255 255 255
-0.91945  7.44243  10.2926 255 255 255
1.83234 7.53671 10.3743 255 255 255
3.46303 7.57932 10.0688 255 255 255
-4.09518    2.646   8.7433 255 255 255
 12.448 8.10098 21.7238 255 255 255
1.60007  7.8856  16.993 255 255 255
4.90036 7.70569 15.5294 255 255 255
7.63919 7.66754 12.7427 255 255 255
4.63475 7.78001 12.7852 255 255 255
8.43491 7.73094  11.135 255 255 255
4.96803 7.65286 10.4431 255 255 255
-4.08765  2.64432  8.73003 255 255 255
10.2033 7.84799 19.7894 255 255 255
3.10385 7.77836 15.5544 255 255 255
-1.23981  7.72214  13.5559 255 255 255
-2.12601  7.63434  12.5467 255 255 255
-3.98027  7.42369  11.2922 255 255 255
2.86918 7.58879 11.2083 255 255 255
-3.87762  3.16977  12.7124 255 255 255
  5.508  7.7824 14.6751 255 255 255
-1.77064  7.46737   11.892 255 255 255
 1.4146 7.86714 16.0752 255 255 255
7.62327 7.61073 12.6619 255 255 255
12.2179 8.32493 23.4917 255 255 255
2.13095 7.81254 15.4217 255 255 255
-2.90251  3.27396  24.6105 255 255 255
-3.43603  7.87632  19.9525 255 255 255
-1.44275  7.66824  14.6258 255 255 255
-2.1412 7.53342 13.1883 255 255 255
  2.677 7.63111 11.5137 255 255 255
2.82538 7.62391 11.2489 255 255 255
4.82146 7.66401 11.2467 255 255 255
14.5853 8.30718 23.3724 255 255 255
7.00036 7.81518 18.3659 255 255 255
0.69381 7.86481 18.1008 255 255 255
5.46191  7.7856 14.6445 255 255 255
2.48012 7.73603 14.5001 255 255 255
-1.82112  7.57907  13.3821 255 255 255
-2.9655 7.43854 12.3964 255 255 255
5.30009 7.73482 12.4006 255 255 255
-4.09261  7.39733  11.5198 255 255 255
3.47655  7.6129 11.7922 255 255 255
-3.82882  7.42767  11.0511 255 255 255
5.62119 7.72406 11.7435 255 255 255
2.12655 7.57016 10.9875 255 255 255
-0.0108074    7.72599    14.4804 255 255 255
3.15007 8.47478  25.763 255 255 255
2.81293 8.17815  24.319 255 255 255
0.685581  8.05227  21.0525 255 255 255
10.0002 7.92918 15.7532 255 255 255
9.23835 7.81082 14.9032 255 255 255
0.133719  7.58077  12.8891 255 255 255
3.05103 7.67942 12.3614 255 255 255
2.87014 7.58937 11.2305 255 255 255
 5.0753 7.57766 11.9111 255 255 255
4.03116 0.64385 28.4683 255 255 255
1.88551 4.65465 30.1106 255 255 255
  11.75 8.12737 20.8815 255 255 255
-1.47935  7.65161  13.7862 255 255 255
4.17639 7.72088 13.2019 255 255 255
0.549114  7.52927  11.4682 255 255 255
-0.435972   7.47645   10.5956 255 255 255
-2.44589  7.66745  15.4793 255 255 255
-1.25479   7.8056  13.7501 255 255 255
2.82255 7.66852 12.7834 255 255 255
2.82859 7.65532 11.9372 255 255 255
4.11124 7.63107 11.4649 255 255 255
-2.51582  7.38461  10.2251 255 255 255
-3.10063  7.52484  11.9598 255 255 255
3.68411 7.67218 11.5795 255 255 255
0.130825  7.52428  11.3258 255 255 255
-3.37115  8.49088  29.7201 255 255 255
 2.8773 7.66457 13.5008 255 255 255
-1.17205  7.68267  14.0166 255 255 255
-0.897849   7.43074   10.8542 255 255 255
5.47566 7.62755 10.4281 255 255 255
1.54009 7.81383 17.8595 255 255 255
4.63583 7.81925 15.9495 255 255 255
-0.376427   7.61207    12.817 255 255 255
2.47114 7.55324 10.3918 255 255 255
 -4.1189 -1.30656  8.49078 255 255 255
-4.10448 -1.29436  8.46736 255 255 255
 4.85438 0.648841  30.0478 255 255 255
8.82872 7.85405 15.8423 255 255 255
4.47137 7.67236 12.2238 255 255 255
5.66987 7.72253 12.3108 255 255 255
3.47663  7.6398  11.824 255 255 255
 -4.12106 -0.140704   7.32793 255 255 255
1.49314 7.75864 15.9494 255 255 255
0.974063  7.72821  14.7309 255 255 255
 3.40976 0.584354  29.5327 255 255 255
 5.9912 7.70818 13.9554 255 255 255
-4.12855  7.40337  11.5578 255 255 255
 2.3593 8.19468 23.9926 255 255 255
14.5018 8.09349 19.1032 255 255 255
1.90736 7.72911 14.1963 255 255 255
2.69699 8.05785 23.9643 255 255 255
-2.18871  7.36074  10.8047 255 255 255
-1.69441  7.40901  10.5591 255 255 255
  5.01858 0.0255883   29.5241 255 255 255
1.59512 8.44191 14.6102 255 255 255
12.7828 8.06816 19.1804 255 255 255
0.928946  8.15977  24.4064 255 255 255
2.96691 7.55293 10.2366 255 255 255
3.32547   7.653 12.4785 255 255 255
4.94153 7.75087 12.9233 255 255 255
6.99603 7.68031  11.841 255 255 255
-3.92453  7.51896  12.5698 255 255 255
 5.8271 7.72596  12.852 255 255 255
-1.48997  7.54697  12.9015 255 255 255
10.8552 8.47787 28.9676 255 255 255
-2.06936  7.50528  12.3223 255 255 255
  3.76589 -0.622211   29.4719 255 255 255
1.54719 7.69192 13.2403 255 255 255
2.73347 7.76187 14.5677 255 255 255
-3.1206 7.37369 10.5081 255 255 255
5.19244 7.71851 12.9467 255 255 255
-1.25853  7.44208   12.017 255 255 255
2.88534 7.62702 13.4114 255 255 255
0.487757  7.68389  13.5816 255 255 255
2.89233 7.72149 13.5443 255 255 255
10.5287 8.00304 20.3371 255 255 255
3.63923 7.76693 13.2908 255 255 255
-3.91785  7.28405    11.03 255 255 255
5.22276 7.66755 11.6202 255 255 255
2.29993 8.33325 25.6404 255 255 255
-3.76646    7.887  20.0205 255 255 255
-2.64121  7.40323  10.9223 255 255 255
-1.86241  7.51214  12.6321 255 255 255
-2.72086  7.75256  17.6502 255 255 255
5.09498 7.61713 11.9785 255 255 255
-4.14341 -1.30907  8.52829 255 255 255
10.7524 8.40424 27.3364 255 255 255
-3.1716 7.63993 15.5319 255 255 255
4.50174 7.68709 11.9516 255 255 255
