ply
format ascii 1.0
element vertex 867
property float x
property float y
property float z
property uchar red
property uchar green
property uchar blue
end_header
  -0.72704 -0.0673018  -0.378251 0 255 0
  0.889922 -0.0945915   -0.25158 0 255 0
  0.942502 -0.0967973  -0.250619 0 255 0
  0.998482 -0.0961276  -0.245292 0 255 0
   1.05354 -0.0974417  -0.239692 0 255 0
   1.10909 -0.0962405  -0.233704 0 255 0
   1.16061 -0.0970242  -0.227731 0 255 0
  1.21754  -0.09635 -0.227727 0 255 0
    1.2688 -0.0961301  -0.227075 0 255 0
   1.32656 -0.0923586  -0.217468 0 255 0
   1.38162 -0.0952243  -0.222198 0 255 0
   1.43441 -0.0974935  -0.215695 0 255 0
   1.48937 -0.0959721  -0.215692 0 255 0
   1.54754 -0.0944073   -0.21341 0 255 0
   1.59885 -0.0967335  -0.209014 0 255 0
   1.65379 -0.0964209  -0.204254 0 255 0
  1.71003 -0.096064 -0.196554 0 255 0
   1.76643 -0.0933449  -0.188788 0 255 0
   1.82016 -0.0944756  -0.190045 0 255 0
   1.87698 -0.0943022  -0.184187 0 255 0
   1.93264 -0.0934059  -0.184658 0 255 0
   1.98679 -0.0940472   -0.18534 0 255 0
0.455011  5.96905  21.6718 255 255 255
2.48699 5.96916 21.7294 255 255 255
8.65083 6.09175 21.3736 255 255 255
4.54373 6.08622 21.4377 255 255 255
8.93682 6.14767 21.2882 255 255 255
10.2674 6.09272 21.3369 255 255 255
1.24264 6.20694 20.8868 255 255 255
3.83014 6.14415  21.029 255 255 255
 6.0037 6.18109 21.0191 255 255 255
1.85624 6.16708 20.7739 255 255 255
9.34285 6.35041 20.7584 255 255 255
1.60903 6.21174 20.4528 255 255 255
8.96464 6.36305 20.6178 255 255 255
5.29503 6.47264  19.742 255 255 255
10.2854 6.45485 19.9378 255 255 255
-0.793752   6.46964   19.4561 255 255 255
 0.6837 6.52727 19.1357 255 255 255
-1.85282   6.4594  18.9096 255 255 255
9.13454 6.61757 19.4877 255 255 255
-1.35906  6.58162  19.1203 255 255 255
3.32333 6.59456 19.1097 255 255 255
-2.67883  6.55969  18.7446 255 255 255
10.9931 6.70332 19.3689 255 255 255
12.2402 6.70658 19.1878 255 255 255
11.3159 6.76927 19.0851 255 255 255
  11.75 6.72553 19.1857 255 255 255
6.41267  6.7109 18.7428 255 255 255
10.0414 6.76295 19.0063 255 255 255
14.7157  6.8028 19.0502 255 255 255
-2.46757   6.6905  18.5443 255 255 255
-1.95672  6.65925  18.5539 255 255 255
-0.808706   6.69416    18.519 255 255 255
1.56562  6.7416 18.4792 255 255 255
13.4036 6.86245 18.7786 255 255 255
-1.22318  6.72155  18.3494 255 255 255
6.52323   6.816 18.5421 255 255 255
-1.80936   6.7482  18.2579 255 255 255
4.86681 6.85498 18.1918 255 255 255
0.852057  6.82046   18.132 255 255 255
2.64486  6.7841 18.2235 255 255 255
 5.8637 6.91734 18.0504 255 255 255
13.7959 6.98943 18.1916 255 255 255
3.32213 6.99285 17.4741 255 255 255
-2.34614  6.99056  17.2536 255 255 255
6.99571 7.08441 17.3147 255 255 255
10.5154 7.14192 17.5148 255 255 255
13.8081 7.17923 17.5922 255 255 255
-0.285899   7.05147   16.9723 255 255 255
0.543054  7.09949  16.8932 255 255 255
6.98362 7.21997 17.1209 255 255 255
-1.98642   7.1431  16.6854 255 255 255
4.20918 7.23623 16.6916 255 255 255
3.54409 7.23568 16.5085 255 255 255
3.30272 7.27129 16.5322 255 255 255
5.39565 7.27487 16.5382 255 255 255
12.7098 7.34568 16.6924 255 255 255
 3.7219 7.29525 16.4104 255 255 255
-3.43153  7.23326  16.1872 255 255 255
12.6728 7.42033 16.4554 255 255 255
0.102526  7.30977  16.0325 255 255 255
-1.98813  7.32035  15.7196 255 255 255
7.09953 7.40668 15.9862 255 255 255
0.890243  7.36058  15.7532 255 255 255
1.52336 7.39772 15.7514 255 255 255
-2.17741  7.36633   15.648 255 255 255
-3.76793  7.35369  15.5321 255 255 255
3.59294 7.43807 15.7238 255 255 255
-1.73092  7.41376  15.4477 255 255 255
5.20467 7.50114 15.6431 255 255 255
5.51319 7.52219 15.6997 255 255 255
10.7659 7.55584 15.8114 255 255 255
-2.8444 7.42984 15.3957 255 255 255
0.998844  7.45016  15.4137 255 255 255
2.30007 7.48518 15.4964 255 255 255
6.72904 7.59031 15.3414 255 255 255
3.48778 7.58067 15.2173 255 255 255
-0.650619   7.53707   15.0529 255 255 255
8.68073 7.63095 15.4292 255 255 255
0.66683 7.57463 15.0371 255 255 255
9.16572  7.6833 15.2551 255 255 255
-3.74234  7.50439  14.9408 255 255 255
-1.68787  7.57662  14.7334 255 255 255
-1.17125  7.61544   14.611 255 255 255
10.3487 7.78651 14.9003 255 255 255
6.43174 7.73546 14.9002 255 255 255
-0.0145436    7.69353    14.5187 255 255 255
-1.40286  7.68066  14.3465 255 255 255
5.66178 7.78047 14.6205 255 255 255
-1.03379  7.72465  14.2908 255 255 255
8.23733 7.82112 14.5712 255 255 255
7.54255 7.83004 14.5548 255 255 255
-3.24366  7.69819  14.1683 255 255 255
8.64717 7.82262 14.4833 255 255 255
4.17504  7.8072 14.2847 255 255 255
-1.09019   7.8038  13.9563 255 255 255
6.26042 7.87869 14.1607 255 255 255
-1.9656 7.78485 13.8127 255 255 255
5.06814  7.8971 14.0923 255 255 255
0.786295   7.8476  13.8596 255 255 255
-1.12722  7.83861  13.7374 255 255 255
-2.70734  7.86871  13.4696 255 255 255
-1.65654  7.88277   13.433 255 255 255
4.42082  7.9809 13.5788 255 255 255
-3.08917  7.89537  13.3413 255 255 255
-0.461986    7.9364    13.414 255 255 255
2.34003 7.98332 13.1922 255 255 255
-2.09415    7.976  13.0955 255 255 255
-4.44379  7.94795  13.0154 255 255 255
-2.26189  7.99884  12.9598 255 255 255
-1.39387  8.02106  12.9954 255 255 255
3.56559 8.10221 13.1318 255 255 255
-2.99215  7.98079  12.8914 255 255 255
4.46552 8.10095 13.1065 255 255 255
-2.45296  8.00758  12.8931 255 255 255
-3.52968  8.02729  12.8194 255 255 255
5.00212 8.11398 12.9816 255 255 255
-2.47516  8.05287   12.754 255 255 255
0.189248  8.10079  12.8428 255 255 255
5.72155 8.17933 13.0112 255 255 255
-0.887101   8.08513   12.7194 255 255 255
1.61382 8.12873 12.7949 255 255 255
-2.69466  8.10022  12.6169 255 255 255
-1.25654  8.10903  12.6239 255 255 255
0.888375  8.15583  12.5702 255 255 255
5.22494 8.24532 12.6603 255 255 255
-1.44359  8.14301  12.4095 255 255 255
-1.65129  8.15052  12.3819 255 255 255
-0.928731   8.15907   12.3727 255 255 255
0.515002  8.19617  12.4182 255 255 255
7.61553 8.28833 12.6462 255 255 255
-4.19401  8.15266  12.1286 255 255 255
  4.715 8.28582 12.3973 255 255 255
1.95559 8.27466 12.3006 255 255 255
-3.13287  8.16548  12.0383 255 255 255
 1.9492 8.32884 12.0076 255 255 255
3.61929 8.38039 11.9703 255 255 255
-2.09592  8.30872  11.7883 255 255 255
0.115963  8.33981  11.7623 255 255 255
-0.832918   8.35412   11.6372 255 255 255
1.40817 8.42106 11.4954 255 255 255
5.53026 8.50549 11.6769 255 255 255
4.79526 8.50289 11.4851 255 255 255
2.53164 8.48831 11.3835 255 255 255
2.53005 8.52806  11.252 255 255 255
0.63383 8.51507 11.1231 255 255 255
4.05909 8.56846 11.2535 255 255 255
4.81937 8.59586 11.2744 255 255 255
0.88626 5.73039 21.7672 255 255 255
2.85856 5.79298 22.0236 255 255 255
-1.59028   5.8642  21.7928 255 255 255
-0.0924234    5.89185    21.8535 255 255 255
3.66645 6.07436 21.4184 255 255 255
6.88397 6.04744 21.4138 255 255 255
6.13429 6.07663 21.4456 255 255 255
2.73068 6.04926 21.0857 255 255 255
9.79849 6.11124 21.3513 255 255 255
7.06537  6.1856 20.6711 255 255 255
13.3007 6.25355 20.9617 255 255 255
2.22435 6.42943 20.1962 255 255 255
 13.666 6.48755 20.4067 255 255 255
3.84106 6.43576 19.9578 255 255 255
8.06463 6.49639  19.967 255 255 255
6.67349  6.5077 19.6262 255 255 255
3.05845 6.58396 19.1186 255 255 255
15.1065 6.61988 19.3292 255 255 255
7.98519 6.85251 18.6842 255 255 255
2.36384 6.83905 18.1424 255 255 255
-2.35956  6.98037  17.8996 255 255 255
-2.10681  6.76779  17.1579 255 255 255
9.48518 7.02481 17.6873 255 255 255
5.91649 7.04083 17.5978 255 255 255
11.1284 7.15848 17.6941 255 255 255
3.56729 7.07283  17.036 255 255 255
10.2193 7.17432 17.1431 255 255 255
-0.0803581     7.1159     16.586 255 255 255
-3.08456  7.06587  16.4117 255 255 255
2.97287 7.21182 16.6386 255 255 255
10.8448 7.23954  16.842 255 255 255
-2.05141  7.19002  16.2729 255 255 255
12.6577 7.41769 16.4253 255 255 255
0.589748  7.34229  16.1943 255 255 255
-1.76164  7.32168  15.8445 255 255 255
-1.47589  7.34337  15.8327 255 255 255
-2.59061  7.28864   15.668 255 255 255
-3.76523  7.37086  15.5475 255 255 255
-0.0800599    7.41197    15.5351 255 255 255
7.10324 7.52812 15.7509 255 255 255
2.36462 7.42565 15.2789 255 255 255
-2.40831   7.4353  15.1596 255 255 255
-1.90516  7.46862  15.2104 255 255 255
 8.8742 7.58212 15.3229 255 255 255
8.65305 7.63696 15.3983 255 255 255
 3.2221  7.5925 15.2362 255 255 255
 2.7496 7.63093 15.2402 255 255 255
4.57975  7.6759 15.0515 255 255 255
11.6933 7.73589 15.2966 255 255 255
-3.55687  7.58785  14.7209 255 255 255
1.48566 7.67712 14.8658 255 255 255
-4.04893  7.57928  14.6011 255 255 255
-1.44417  7.59845   14.645 255 255 255
  5.634   7.751 14.5474 255 255 255
8.65823 7.80545 14.4571 255 255 255
-4.13699  7.70968   13.922 255 255 255
0.983365  7.77436  13.9731 255 255 255
-3.30181  7.73837  13.7596 255 255 255
4.43795 7.87038  13.987 255 255 255
8.40933 7.97115 13.9184 255 255 255
8.69887 7.97425 13.7424 255 255 255
-4.34186  7.93591   13.317 255 255 255
5.54175 8.02256 13.4403 255 255 255
-2.82163  7.92168  13.1447 255 255 255
-3.98046  7.94363  13.1651 255 255 255
5.86589  8.0641 13.3517 255 255 255
9.06525  8.1464 13.3878 255 255 255
-1.40271  8.02473  12.9916 255 255 255
3.25892 8.12207 13.0761 255 255 255
7.88194 8.16886 13.2174 255 255 255
  5.462  8.1989 12.5799 255 255 255
5.05277 8.33761 12.5645 255 255 255
-3.55885  8.11683  12.1599 255 255 255
2.53258 8.22949 12.3133 255 255 255
7.83936 8.30994 12.4958 255 255 255
0.124524  8.17799  12.1582 255 255 255
-2.2299 8.20056 12.1191 255 255 255
2.70662  8.3062 12.1859 255 255 255
3.08087 8.34457 12.2072 255 255 255
5.85612 8.38215 12.1761 255 255 255
-2.09306  8.28975  11.7737 255 255 255
7.93497 8.43483  12.094 255 255 255
3.36156 8.41793 11.9239 255 255 255
6.78222 8.48983 11.9832 255 255 255
-3.87108  8.33233  11.2618 255 255 255
2.33109 8.49036 11.4373 255 255 255
0.649031  8.45603  11.3433 255 255 255
1.40284 8.47834  11.334 255 255 255
 4.0502 8.49505 11.3857 255 255 255
0.440524  8.47915  11.2309 255 255 255
3.73193 8.48316 11.2862 255 255 255
6.92078 8.63206 11.5129 255 255 255
-2.65611  6.55215  18.8018 255 255 255
12.2695 6.72254 19.2581 255 255 255
-0.1441 6.63636 18.6876 255 255 255
6.39441  6.7017 18.7831 255 255 255
 1.5274 6.75116 18.4405 255 255 255
-1.20479  6.73851  18.3501 255 255 255
6.52505  6.8555  18.575 255 255 255
-2.1997  7.3936 15.6636 255 255 255
3.50989 7.55601 15.1983 255 255 255
0.679595  7.60649  15.0167 255 255 255
-1.15022  7.60267  14.6282 255 255 255
-0.992039   7.72504   14.2801 255 255 255
0.291623  5.71857  21.8599 255 255 255
0.874348  5.72087  21.8245 255 255 255
2.85801 5.72755  21.925 255 255 255
8.63119 5.78065 21.8329 255 255 255
5.86429 5.85577 21.7856 255 255 255
-1.57896  5.96541  21.8782 255 255 255
-0.137845   5.95183   21.7846 255 255 255
  1.295 6.09445   21.95 255 255 255
5.44085 6.10717 21.5306 255 255 255
3.73697 6.10064  21.426 255 255 255
6.88728 6.11045 21.4509 255 255 255
2.69152 5.68219 19.8643 255 255 255
6.13384 6.11841 21.4003 255 255 255
4.82983 6.05225 20.6058 255 255 255
9.69281 6.11546 21.1855 255 255 255
 14.269 6.23587 21.3312 255 255 255
12.4896 6.29988 21.4093 255 255 255
13.3548 6.20665 20.9953 255 255 255
7.07257 6.19287 20.7725 255 255 255
-2.54224  6.28391  20.3694 255 255 255
8.58224 6.34341 20.5714 255 255 255
12.9353  6.5145 20.7872 255 255 255
2.24329 6.44385 20.2418 255 255 255
 3.7957 6.42717 19.9994 255 255 255
13.5248 6.46581 20.2708 255 255 255
 7.9813 6.47317 19.8967 255 255 255
0.332339  6.43624  19.6434 255 255 255
6.72576 6.47821 19.5842 255 255 255
-0.092962   6.48526   19.4824 255 255 255
 12.838 6.59415 19.8244 255 255 255
 10.682 6.65095 19.4648 255 255 255
3.03194 6.61777 19.0214 255 255 255
7.15294 6.72649 18.7192 255 255 255
-1.2033 6.73145 18.3302 255 255 255
8.41317 6.83629 18.5648 255 255 255
6.49204 6.82711 18.4731 255 255 255
7.93054 6.87356 18.6193 255 255 255
-3.03057  6.77289  18.2084 255 255 255
2.36312 6.82777  18.143 255 255 255
13.6698 6.88213 18.4543 255 255 255
10.6915 6.97316 18.1538 255 255 255
-3.25514  6.86582  17.7093 255 255 255
-0.642718   6.80072   17.5071 255 255 255
11.6933 7.01663 17.7473 255 255 255
8.75915 7.08654  17.757 255 255 255
10.2797 7.12575 17.6884 255 255 255
-3.05843  7.02733  17.1631 255 255 255
11.0502 7.13259 17.5294 255 255 255
3.53166 6.98928 16.9096 255 255 255
10.2959 7.19072  17.262 255 255 255
7.26189 7.12197 16.9637 255 255 255
1.96968 7.15569 16.7995 255 255 255
10.5722 7.28581  17.186 255 255 255
10.9707 7.27323 17.0101 255 255 255
-3.14657  7.09156  16.4543 255 255 255
0.817592  7.18793   16.692 255 255 255
-0.0690539    7.11525    16.5559 255 255 255
-1.77209  7.10476  16.3917 255 255 255
7.47752 7.22724  16.731 255 255 255
2.99524 7.18549 16.6023 255 255 255
3.52722 7.20276 16.5052 255 255 255
 12.094 7.34913  16.929 255 255 255
4.71786 7.33773 16.4733 255 255 255
-2.10483  7.19931  16.2987 255 255 255
0.664252  7.20999  15.9026 255 255 255
0.0974484   7.30071   15.9276 255 255 255
1.65978 7.38327  16.044 255 255 255
7.10404 7.36513 16.0475 255 255 255
11.6337 7.45887 16.3001 255 255 255
-2.56867  7.31962  15.7443 255 255 255
-1.44893  7.41483  15.8954 255 255 255
1.01816 7.39877 15.8866 255 255 255
8.28906 7.52272 15.9287 255 255 255
-0.0836902    7.42052    15.5266 255 255 255
7.08364 7.50714 15.5859 255 255 255
2.37237 7.43801 15.2586 255 255 255
-1.9239 7.48027 15.2826 255 255 255
1.58134 7.49305  15.481 255 255 255
4.68805 7.53578 15.4191 255 255 255
10.0118 7.63306 15.6806 255 255 255
10.8715 7.68711 15.6496 255 255 255
5.15711 7.55625 15.1867 255 255 255
8.87788 7.57341 15.2938 255 255 255
4.84964 7.63863 14.9666 255 255 255
1.51058 7.67925  14.884 255 255 255
-3.50354  7.56487  14.6415 255 255 255
2.10322 7.60215 14.7027 255 255 255
-4.04007  7.59266  14.5638 255 255 255
-1.75662  7.64396  14.6103 255 255 255
9.16379 7.74075  14.869 255 255 255
2.57059 7.73136 14.5323 255 255 255
 7.8628 7.80925 14.8614 255 255 255
8.70898 7.79768 14.4729 255 255 255
 4.3862 7.80046 14.5799 255 255 255
1.98007 7.78167 14.3334 255 255 255
-4.14052  7.76044    14.05 255 255 255
5.77194 7.88162    14.2 255 255 255
-3.32742   7.7585  13.8451 255 255 255
 4.0185 7.88554 14.0195 255 255 255
-2.32311  7.79796  13.7558 255 255 255
-1.32946  7.91328  13.9343 255 255 255
5.30078 7.93385 13.9495 255 255 255
3.06646 7.92066 13.8379 255 255 255
 6.0402 7.92068 13.8425 255 255 255
8.42668  7.9422 13.9286 255 255 255
-4.44736  7.80852  13.5796 255 255 255
-3.79742  7.82379  13.5737 255 255 255
-3.07325  7.81709  13.5788 255 255 255
6.28402  7.9714 13.7927 255 255 255
4.22539 7.94969 13.7079 255 255 255
0.461352  7.93982  13.5593 255 255 255
-2.09352  7.86241  13.3517 255 255 255
6.45502 8.05367 13.6841 255 255 255
8.99446 8.03622 13.5955 255 255 255
-4.39321  8.02459   13.385 255 255 255
3.26175 7.98571 13.3212 255 255 255
2.43735 8.01166 13.3308 255 255 255
-4.64158  7.95355  12.9205 255 255 255
6.94566 8.10647 13.2629 255 255 255
-1.39946  8.02628  12.9448 255 255 255
0.912516  8.06957  12.9051 255 255 255
7.85811 8.18951  13.205 255 255 255
-2.76842  8.07172  12.8188 255 255 255
5.91507 8.12453 12.9739 255 255 255
8.23407 8.22181 12.9603 255 255 255
7.92848 8.24835 12.9812 255 255 255
-3.24177  8.06047  12.5368 255 255 255
-1.52677  8.10588   12.529 255 255 255
3.01718 8.20197 12.6823 255 255 255
-2.65972  8.14353  12.5078 255 255 255
0.252064   8.1291  12.4855 255 255 255
-2.93026  8.19425  12.5267 255 255 255
1.81631 8.21251 12.5224 255 255 255
-3.57978  8.11059  12.2393 255 255 255
0.0803178   8.21587   12.2605 255 255 255
2.56262 8.23813 12.3845 255 255 255
6.09971 8.31044 12.4807 255 255 255
-2.23661  8.15725  12.0948 255 255 255
7.89534 8.33498  12.529 255 255 255
 -2.628  8.1455 11.9748 255 255 255
2.74066 8.29993 12.1811 255 255 255
3.89432 8.35178 12.0453 255 255 255
5.85615 8.39257  12.183 255 255 255
0.505048  8.31853  11.9147 255 255 255
2.25681 8.35268 11.9809 255 255 255
4.36635 8.36476 12.0206 255 255 255
-2.10068  8.29018  11.7793 255 255 255
-1.70942  8.30314  11.8069 255 255 255
3.62466 8.39777 11.9875 255 255 255
7.93259 8.44826 12.0983 255 255 255
3.35468 8.41192 11.9355 255 255 255
 7.6003  8.4658 12.0775 255 255 255
-4.51713  8.22221  11.5806 255 255 255
6.29419 8.40564 11.9081 255 255 255
7.00286 8.44158 11.9314 255 255 255
-3.94478  8.31497  11.6177 255 255 255
-3.47684   8.2354  11.5042 255 255 255
1.96398 8.39221 11.7594 255 255 255
6.75616  8.4965 11.9694 255 255 255
-4.08955  3.06812  13.0585 255 255 255
2.05039  5.6794 21.8001 255 255 255
-0.3596  5.8774 21.8158 255 255 255
5.13639 6.07957 21.2764 255 255 255
9.55737 6.01527 20.7791 255 255 255
 12.345 6.26771 21.4655 255 255 255
8.41191 6.03862 20.2883 255 255 255
2.25191 6.54447 20.7094 255 255 255
3.04604 6.65575 19.0916 255 255 255
7.00459 6.82285 19.2005 255 255 255
-2.95832   6.7059  17.9005 255 255 255
-0.756808   6.87856   17.7262 255 255 255
5.26645  7.1704 17.2916 255 255 255
7.68949 7.33129 15.8939 255 255 255
-3.76335  7.32755  15.4848 255 255 255
   -1.9 7.36518 15.0793 255 255 255
-4.14796  7.39704  15.1864 255 255 255
2.10678 7.62721 14.8269 255 255 255
-2.91169    8.132  12.4943 255 255 255
4.96581  6.0444 21.2499 255 255 255
-0.995226   5.84827   20.2082 255 255 255
6.98503 6.18365 21.1557 255 255 255
3.06462 6.56243 21.0357 255 255 255
-3.1344 6.25531 19.5921 255 255 255
2.09349 6.43788 20.0746 255 255 255
2.42537 6.40303 19.6476 255 255 255
-2.9816 6.78198 18.4755 255 255 255
5.18185 7.09318 17.2245 255 255 255
-0.0603261    7.24518    16.3053 255 255 255
-4.19032  7.36116  15.1983 255 255 255
-3.37369  7.47448   14.244 255 255 255
-4.14002  7.71253  14.3788 255 255 255
6.61224 6.12945 20.9948 255 255 255
-0.189229   7.23023   16.4161 255 255 255
7.86903 7.43098 16.0982 255 255 255
4.87293 6.08123 20.6553 255 255 255
6.63508 6.15785  21.071 255 255 255
-0.967817   6.13346   21.5711 255 255 255
-1.84407   6.1153  20.8219 255 255 255
 -5.0906 -1.61663  10.6585 255 255 255
  3.21933 -0.872924    21.768 255 255 255
   2.812 -0.70562  21.5919 255 255 255
  3.69767 -0.603715   21.6645 255 255 255
  3.98167 -0.575865   21.6613 255 255 255
  3.82631 -0.422697   21.5909 255 255 255
  3.83075 -0.029548   21.6062 255 255 255
  3.0333 0.126165  21.5862 255 255 255
12.7431 2.39509  21.571 255 255 255
 3.35357 0.554295  21.6177 255 255 255
0.483816  2.65948  21.9372 255 255 255
3.62051 0.72107 21.6012 255 255 255
5.72058 6.25954 20.8352 255 255 255
-0.108463   6.63502   18.6151 255 255 255
1.84314 6.75849 18.4805 255 255 255
-3.31994  6.71967  18.1357 255 255 255
-2.35394  6.88724  17.7328 255 255 255
7.47483 6.96426 17.8872 255 255 255
7.65556 7.04612  17.617 255 255 255
3.83174 7.15587  16.872 255 255 255
4.71043 7.12625 16.8172 255 255 255
12.6005 7.31705 16.8843 255 255 255
2.69529 7.26104 16.4771 255 255 255
-1.7542 7.22689 16.1415 255 255 255
0.907741  7.29094  16.1559 255 255 255
-1.77493  7.32247  15.8171 255 255 255
   11.8 7.52196 16.0195 255 255 255
-1.54425  7.43524  15.3923 255 255 255
-0.774902   7.48742   15.2657 255 255 255
1.32133  7.5717 15.1303 255 255 255
3.48992 7.64027 14.9672 255 255 255
-0.182839   7.63535   14.6098 255 255 255
2.84347 7.73449  14.517 255 255 255
4.39406 7.75583  14.522 255 255 255
-4.14915  7.65861  14.2268 255 255 255
3.83163 7.76846 14.4487 255 255 255
6.03842 7.80154 14.3539 255 255 255
-2.24392  7.74926  14.1134 255 255 255
2.84416 7.85068 14.0195 255 255 255
4.92092  7.9202 13.7716 255 255 255
4.23982 7.94523 13.6849 255 255 255
6.52729 7.98916 13.7786 255 255 255
4.94661 8.01971 13.4107 255 255 255
-1.91267  8.00772  12.9932 255 255 255
6.93672 8.12209 13.2826 255 255 255
9.06685 8.14861 13.3911 255 255 255
-4.14181   8.0979  12.4035 255 255 255
-4.72863  8.21936  12.1214 255 255 255
2.70044 8.32006 12.2097 255 255 255
5.84666 8.36405 12.1531 255 255 255
1.96046 8.38524 11.7543 255 255 255
4.38215 8.43549 11.7664 255 255 255
0.640139  8.45108  11.3528 255 255 255
3.27889 8.50828 11.3819 255 255 255
4.05349  8.5128 11.3907 255 255 255
3.84828 8.54139 11.4118 255 255 255
2.15952 8.51748 11.2423 255 255 255
-2.04249 -4.11288  22.1198 255 255 255
  3.34934 -0.766474   21.5918 255 255 255
  3.60873 -0.281206    21.582 255 255 255
    3.8289 -0.0370847    21.6042 255 255 255
 12.4161 0.667081  21.6374 255 255 255
11.8556 1.64813 21.3326 255 255 255
13.4567 1.64392 21.6551 255 255 255
12.4963  2.1051 21.7043 255 255 255
13.0204 2.09401 21.6149 255 255 255
1.15566 6.26208 20.4202 255 255 255
   14.7 6.78383 19.0221 255 255 255
-0.798042   6.70078   18.5157 255 255 255
11.6855 7.04201 17.7833 255 255 255
7.24354 7.13627 16.9696 255 255 255
4.70913 7.32729 16.4934 255 255 255
0.08659 7.30938 15.9755 255 255 255
0.988911  7.46104   15.476 255 255 255
7.88974 7.77601 14.9179 255 255 255
 9.4254 7.77333 14.7726 255 255 255
-3.12694  7.64125  14.3516 255 255 255
8.03619 7.80602 14.5695 255 255 255
-4.46019  7.85837  13.6465 255 255 255
3.85016 8.01369 13.6592 255 255 255
-2.08129  7.90246  13.3238 255 255 255
-3.32067  7.89238  13.2074 255 255 255
2.45012 8.05773 13.4072 255 255 255
 3.2392 8.01373 13.3552 255 255 255
-2.36655  7.96388    13.14 255 255 255
2.14725 8.08973 13.1968 255 255 255
-3.20004  7.92598   12.847 255 255 255
1.62934 8.12116 12.7859 255 255 255
8.27915 8.25813 12.9834 255 255 255
0.890275  8.17325  12.5757 255 255 255
5.21828 8.22576 12.6388 255 255 255
1.81121 8.21351  12.504 255 255 255
10.0974 8.33587 12.7261 255 255 255
9.68614 8.36191 12.5501 255 255 255
  9.486 8.45179 12.3573 255 255 255
0.505696  8.31055  11.9869 255 255 255
 2.2958 8.37723 12.0486 255 255 255
3.86185 8.34616 12.0306 255 255 255
-4.49987  8.24862  11.6053 255 255 255
-3.80975  8.23182  11.4369 255 255 255
3.08539 8.42967 11.7494 255 255 255
9.32494 8.46891 11.7704 255 255 255
4.79833 8.50439 11.4796 255 255 255
-4.60153  8.36245  11.1726 255 255 255
3.27594 8.51085   11.39 255 255 255
6.13534 8.57854 11.5327 255 255 255
-3.15566  7.42977  15.3055 255 255 255
-3.19833  7.92412  12.8444 255 255 255
  5.705 8.19353 13.0296 255 255 255
  3.65179 -0.350548   21.5375 255 255 255
  3.35816 -0.738994   21.5845 255 255 255
 3.34255 0.244552  21.5848 255 255 255
 4.09862 0.430917  21.5519 255 255 255
 3.53181 0.596854  21.5483 255 255 255
13.0045 0.73873 21.6568 255 255 255
 3.94781 0.859582  21.5475 255 255 255
13.4541 0.95066 21.9629 255 255 255
13.4563 1.67062 21.7188 255 255 255
13.0401 2.04621 21.6395 255 255 255
12.4521 2.04848   21.65 255 255 255
11.8252 1.64585 21.1546 255 255 255
-4.20154  3.32605  14.6382 255 255 255
-2.16433  5.93589   21.816 255 255 255
1.14985 6.23346 20.5217 255 255 255
9.05629 6.32416 20.5543 255 255 255
-2.86454  6.62857   18.642 255 255 255
-0.174787   6.91174   17.8428 255 255 255
-2.2346  6.8733 17.5623 255 255 255
5.91917 7.16099 17.8453 255 255 255
6.80011 7.18939 16.9344 255 255 255
4.72386 7.29449 15.9819 255 255 255
3.59945 7.45204 15.7593 255 255 255
-3.76691  7.40076  15.5484 255 255 255
1.25676 7.42435  15.557 255 255 255
6.24223 7.57292 15.2844 255 255 255
2.68373 7.68474 15.2588 255 255 255
6.63978 7.65096 14.9481 255 255 255
 1.0337 7.60421 14.5417 255 255 255
6.12684 7.71751 14.7965 255 255 255
5.63824 7.74139 14.5002 255 255 255
-2.54612  7.69937  14.2243 255 255 255
0.29627 7.77754 14.0766 255 255 255
4.44446 7.84233 14.0313 255 255 255
4.57537 7.92166 13.7394 255 255 255
8.70972 7.97148 13.7456 255 255 255
-2.44439  7.91863  13.4512 255 255 255
3.82679 7.99167 13.6278 255 255 255
2.78175 7.94286 13.4694 255 255 255
-0.414506   7.98691   13.3722 255 255 255
-2.81835  7.94062  13.1321 255 255 255
5.88644 8.04611 13.3512 255 255 255
-2.90912  7.80895  12.8257 255 255 255
8.22036 8.11219 13.3608 255 255 255
9.47083 8.22086 13.4994 255 255 255
 4.8908  8.1345 13.2339 255 255 255
-1.98023  8.06343  12.7667 255 255 255
-1.22473  8.11353  12.6418 255 255 255
9.84366 8.31705 12.8996 255 255 255
7.35956 8.28348 12.6785 255 255 255
5.71539  8.3178 12.4761 255 255 255
4.47604  8.3072 12.3448 255 255 255
9.68653 8.39018 12.5537 255 255 255
-0.62508  8.23919  12.1247 255 255 255
-0.237419   8.25525   12.0221 255 255 255
8.44542 8.41145 12.1768 255 255 255
-1.36123   8.3008   11.777 255 255 255
5.49296 8.47605 11.8895 255 255 255
-1.87588 -3.56237  22.3824 255 255 255
-4.09959   2.1458  14.5174 255 255 255
 1.5929 5.97309 20.3868 255 255 255
6.71943 5.90939 20.2273 255 255 255
-1.12822  6.57722  18.1861 255 255 255
0.000460264      7.2345      16.172 255 255 255
-2.64598  7.55509  14.8208 255 255 255
-2.58683  7.68037  14.1992 255 255 255
-3.6878 8.09502 12.3064 255 255 255
7.63967 8.28719 12.6716 255 255 255
6.71589 7.17286 16.9333 255 255 255
5.87488 7.93586 14.2611 255 255 255
13.0477 1.75125 21.8396 255 255 255
 12.3675 0.966616  21.5904 255 255 255
12.3484 1.74835 21.4094 255 255 255
-4.02881  2.95773  13.2002 255 255 255
-4.21545  2.27379  14.6756 255 255 255
2.11467 5.54057 21.5355 255 255 255
1.90887 7.30337 15.6941 255 255 255
-2.00874  7.48831  15.2307 255 255 255
1.62754 7.93627 13.6407 255 255 255
-2.07965  6.13408  21.1746 255 255 255
2.31003 6.44452 19.9364 255 255 255
2.34082 6.43528 19.8802 255 255 255
-1.6752 2.51492 20.4423 255 255 255
-1.51874  2.18666  21.2227 255 255 255
   4.08962 -0.0912916     21.545 255 255 255
5.35566  6.0345 21.2005 255 255 255
-0.34496   6.1123  20.5304 255 255 255
10.6333 6.61692 19.3732 255 255 255
13.3304 6.78326 18.9782 255 255 255
9.39987 6.98303 17.4052 255 255 255
2.44374 7.25773 16.3742 255 255 255
2.98421  7.7908 14.2459 255 255 255
6.31234 7.98526 13.8147 255 255 255
1.57312 7.96343 13.5528 255 255 255
3.01467 8.02561 13.3237 255 255 255
-1.19159  8.00128  13.0371 255 255 255
-3.22857   8.0893  12.5524 255 255 255
 3.8522  8.5689 11.2299 255 255 255
-3.1119 7.61632 14.3057 255 255 255
4.17548 7.79052 14.2497 255 255 255
3.04397 7.89505 13.8119 255 255 255
9.01999  8.0834 13.6134 255 255 255
8.26941 8.23176 13.1176 255 255 255
5.18627 8.19842 12.9292 255 255 255
-3.2327 8.08349 12.5532 255 255 255
5.04942 8.32748 12.5521 255 255 255
2.29069 8.35732 12.0192 255 255 255
2.49204 8.42678 11.6345 255 255 255
-0.672752   8.41728   11.5187 255 255 255
-0.112639   8.43018   11.3597 255 255 255
 3.80198 0.232061  21.5909 255 255 255
5.07038 7.94736 14.1283 255 255 255
 12.4158 0.728848  21.6821 255 255 255
2.11695 5.74176 21.7121 255 255 255
9.55325 6.84424 18.1352 255 255 255
 4.6989 7.16986 16.8992 255 255 255
5.94991 7.15746 16.4744 255 255 255
-1.43659  7.57686  14.6515 255 255 255
-0.170555   7.59425   14.5545 255 255 255
0.998805   7.8177  14.0134 255 255 255
2.81701 7.83405 13.9872 255 255 255
1.60096 7.90686  13.497 255 255 255
-3.37268  7.87172  13.2959 255 255 255
9.09966 8.17905 13.4406 255 255 255
3.78325 8.24563 12.6832 255 255 255
5.48581 8.19313 12.5706 255 255 255
6.75388 8.32064 12.3149 255 255 255
 9.4888 8.37884 12.3207 255 255 255
8.96775 8.44774  12.119 255 255 255
-0.835666   8.39779   11.6706 255 255 255
 12.445 1.89243 21.7216 255 255 255
13.0722 1.82891 21.6482 255 255 255
-3.37576  7.99346  12.6598 255 255 255
1.48171 7.54795  15.521 255 255 255
 5.3634 7.92541 13.8939 255 255 255
-2.71336  8.03108  12.8093 255 255 255
8.43129 6.07275 20.2604 255 255 255
2.20815 7.61435 15.0781 255 255 255
 -4.409 2.91111 14.0589 255 255 255
-4.36313  2.72126  14.3912 255 255 255
-5.20241 -1.83849  10.0775 255 255 255
12.9919 6.05588 21.2281 255 255 255
 1.6243 7.57209 15.1111 255 255 255
5.35832 7.83303 14.3076 255 255 255
5.74109 7.87906 14.1835 255 255 255
5.85661 8.07668 13.3483 255 255 255
-1.92085  8.02955  13.0286 255 255 255
-3.04112   8.0145  12.6808 255 255 255
-4.14048  8.09763  12.4005 255 255 255
2.18871 8.26587    11.9 255 255 255
4.37355 8.38179 12.0362 255 255 255
7.00064 8.44859 11.9233 255 255 255
-1.21532  8.38489  11.5194 255 255 255
1.96625 8.45231 11.5076 255 255 255
3.85339 8.57167 11.2311 255 255 255
-5.18585  2.97204   10.312 255 255 255
11.0958 6.81146 18.4386 255 255 255
1.66757 7.38759 16.0556 255 255 255
4.97593 7.46669 15.0667 255 255 255
8.21643 8.10396  13.352 255 255 255
4.94768 8.14786 13.3014 255 255 255
9.30142 8.45518 12.0106 255 255 255
5.55155 8.57402 11.5371 255 255 255
-5.17915  2.97216   10.299 255 255 255
 9.4801 6.91234 17.5109 255 255 255
3.18922 7.57414 15.1804 255 255 255
-1.32829  7.90682  13.9228 255 255 255
-2.36429  8.02716  13.2004 255 255 255
-4.61776  8.11639  12.3863 255 255 255
3.11756 8.30607 12.1482 255 255 255
-4.2333 3.15603 13.4065 255 255 255
5.68369 7.75045 14.5848 255 255 255
-2.0509 8.02866 12.7907 255 255 255
1.48396 7.53976 15.4962 255 255 255
8.20176 8.04603 13.2715 255 255 255
 10.612 6.76674 19.3265 255 255 255
2.20727 7.60252 15.0537 255 255 255
-2.10377   2.3941   20.088 255 255 255
-2.95566  6.86089  17.7754 255 255 255
-1.46607  7.62637  14.6429 255 255 255
-2.33372  7.81102  13.7363 255 255 255
2.88985 8.27514 12.3832 255 255 255
3.06752 8.33257 12.1826 255 255 255
5.29836 8.38067 12.1611 255 255 255
12.6089 6.76917 19.2529 255 255 255
6.73461 7.08221  16.771 255 255 255
0.802624  7.17353  16.7058 255 255 255
5.63612 7.75301 14.5527 255 255 255
2.58877 7.73915 14.5101 255 255 255
-1.96336  7.79717  13.8264 255 255 255
-3.33124  7.90301  13.2291 255 255 255
5.69968  8.1823 13.0105 255 255 255
-4.69621  8.02013  12.5439 255 255 255
 3.7644 8.19706 12.5942 255 255 255
-4.48212  8.18155  12.1938 255 255 255
6.13131 8.33632 12.5429 255 255 255
2.29478 8.37441 12.0452 255 255 255
0.00911781    7.73847     14.553 255 255 255
2.90609 6.53896 20.3489 255 255 255
2.58817 6.31401 19.1629 255 255 255
0.832906  6.79767  18.0761 255 255 255
10.0526 7.70209 15.2732 255 255 255
9.44915  7.7513 14.7278 255 255 255
0.106549  7.93167  13.4776 255 255 255
 3.2696 8.14522 13.0284 255 255 255
3.11709 8.30255   12.16 255 255 255
5.51818 8.14256 12.6888 255 255 255
 3.58823 0.130472  21.4909 255 255 255
1.86435 3.09114 21.8503 255 255 255
10.6936 6.99433  18.112 255 255 255
-1.57246  7.80592  14.1257 255 255 255
4.42243 7.98228 13.5816 255 255 255
0.51619 8.19658 12.4197 255 255 255
-0.636529   8.34152   11.7472 255 255 255
-2.43242  7.47987  15.2581 255 255 255
-1.33364  7.95334  14.0472 255 255 255
3.00469 8.03465 13.3318 255 255 255
3.04161 8.20077 12.6964 255 255 255
4.48714 8.28522 12.3264 255 255 255
-3.08275  8.33239  11.5007 255 255 255
-3.51954  8.06448  12.8524 255 255 255
3.99816 8.29171 12.3954 255 255 255
0.0453606   8.20941   12.2949 255 255 255
-2.11551  5.97056  21.7547 255 255 255
3.03377 7.86171  13.813 255 255 255
-1.22489  7.76509  14.2318 255 255 255
-1.15154  8.23317  11.9734 255 255 255
 6.1331 8.55264 11.5262 255 255 255
1.60916 7.16783 16.5548 255 255 255
4.69698 7.53794 15.4072 255 255 255
-0.449612   7.96345   13.4092 255 255 255
2.70031 8.47839 11.5305 255 255 255
-5.21345 -1.85031   10.098 255 255 255
-5.21078 -1.84164  10.0921 255 255 255
 4.08855 0.106732  21.7085 255 255 255
8.86721 7.60306 15.3163 255 255 255
4.83124 8.18375 12.9358 255 255 255
6.11518 8.20114 12.9601 255 255 255
3.76364 8.22437  12.627 255 255 255
 -5.47705 -0.414597   9.01415 255 255 255
1.56827 7.46288 15.4254 255 255 255
1.03486 7.68411 14.6902 255 255 255
  3.03367 0.0646888   21.5773 255 255 255
6.26711 7.83086 14.1198 255 255 255
-4.7134 7.99387 12.5358 255 255 255
2.26559 6.48298 19.4041 255 255 255
13.5647 7.26465 17.1892 255 255 255
1.99736  7.7847 14.3015 255 255 255
2.55055 6.38879 19.4242 255 255 255
-2.63374  8.16396  11.9596 255 255 255
-2.09155  8.28315  11.7594 255 255 255
  4.25115 -0.344501   21.5908 255 255 255
 1.6599 8.50586 14.7048 255 255 255
11.9588 7.21366 17.2116 255 255 255
1.08724 6.44683 19.7619 255 255 255
3.27569 8.50912 11.3875 255 255 255
3.56418 8.09368 13.1193 255 255 255
5.26847 8.09108  13.413 255 255 255
7.62526 8.26827 12.6084 255 255 255
-4.34153  7.91445  13.3108 255 255 255
6.22011 8.08571 13.3535 255 255 255
-1.65146  7.88146  13.5068 255 255 255
8.67766 6.13768 21.4896 255 255 255
-2.33718  7.96862   13.104 255 255 255
  3.31836 -0.842694   21.6008 255 255 255
1.62752 7.95573 13.6703 255 255 255
2.84561 7.74628 14.5402 255 255 255
-3.75057  8.25586  11.7529 255 255 255
5.53028 8.04701 13.4179 255 255 255
-1.46485  7.95856  12.8518 255 255 255
3.04846 7.85438 13.7737 255 255 255
0.505631  7.86845  13.9141 255 255 255
3.04926 7.92366 13.8613 255 255 255
9.71503 6.97008 17.8588 255 255 255
3.85148  8.0278 13.6794 255 255 255
-4.58553  8.02281  12.1794 255 255 255
5.70935 8.30808 12.4613 255 255 255
2.20408   6.406 20.2071 255 255 255
-3.24538  6.84174  17.7699 255 255 255
-3.14307  8.18896  12.0745 255 255 255
-2.07951   7.9002  13.3166 255 255 255
-2.49577  7.13484  16.5074 255 255 255
5.52547 8.15862  12.715 255 255 255
-5.22285 -1.84469  10.1092 255 255 255
8.80939 6.28238 20.8787 255 255 255
-3.15868   7.4209  15.2732 255 255 255
4.88104 8.24733 12.7104 255 255 255
