ply
format ascii 1.0
element vertex 561
property float x
property float y
property float z
property uchar red
property uchar green
property uchar blue
end_header
0 0 0 0 255 0
   0.99922 -0.0236963  0.0316017 0 255 0
0.0511451   8.53323     29.92 255 255 255
2.78175 8.53667 30.1109 255 255 255
10.8178 8.38972 28.7747 255 255 255
 5.4348 8.44011 28.9309 255 255 255
11.1333 8.41036 28.4822 255 255 255
12.8334 8.32022  28.452 255 255 255
1.11091   8.319 27.2421 255 255 255
4.45643 8.38062 27.9513 255 255 255
7.20483  8.3316 27.6786 255 255 255
 1.9037 8.33859 27.3351 255 255 255
11.3941 8.44158 27.0364 255 255 255
1.57962 8.22831 26.3468 255 255 255
10.8129 8.36665 26.5898 255 255 255
6.03235 8.21125 24.5779 255 255 255
12.1019 8.17466 24.8474 255 255 255
-1.28268  8.09656  23.7544 255 255 255
0.48104 8.06737 23.1516 255 255 255
-2.49874  8.04177   22.976 255 255 255
 10.564 8.24005 23.9254 255 255 255
-1.89472  8.08703  22.9267 255 255 255
3.58277 8.12315 23.1283 255 255 255
-3.39457  8.02057  22.3611 255 255 255
12.7038 8.26109 23.5813 255 255 255
 14.043 8.16527 23.1026 255 255 255
12.9479 8.23202  22.963 255 255 255
13.4094 8.15643 23.0025 255 255 255
7.12441 8.10677 22.3177 255 255 255
11.2684 8.09871 22.4989 255 255 255
16.8454 8.19837 22.7557 255 255 255
-3.10006  8.07657  21.8798 255 255 255
-2.49851  7.99891  21.7732 255 255 255
-1.19727   8.0499  21.8166 255 255 255
1.52059 8.10777  21.849 255 255 255
15.1148 8.15798 22.1297 255 255 255
-1.64822  8.02269  21.4646 255 255 255
7.15207 8.07931 21.7144 255 255 255
-2.30787  8.05422  21.3409 255 255 255
5.22126 8.03882 21.0693 255 255 255
0.714703  8.07619  21.1606 255 255 255
2.73397 8.01769 21.2212 255 255 255
6.30663 8.03431 20.7376 255 255 255
15.1454 8.05001 20.8096 255 255 255
3.42167 7.94228 19.6324 255 255 255
13.8573 8.01762 20.0022 255 255 255
-2.70164  7.89435  19.1455 255 255 255
7.36758 7.93607 19.2545 255 255 255
 11.291 8.07121 19.6689 255 255 255
14.9578 8.12241 19.8177 255 255 255
-0.468486    7.8763   18.7153 255 255 255
0.421242  7.91321  18.6191 255 255 255
7.30645 8.00826 18.8726 255 255 255
-2.23768  7.88846  18.1604 255 255 255
4.29818 7.92287 18.1647 255 255 255
3.58461  7.8887 17.8757 255 255 255
3.32556 7.90929 17.8689 255 255 255
5.51168 7.88701 17.8459 255 255 255
13.2711 7.97449 18.0978 255 255 255
3.76828 7.92624  17.727 255 255 255
-3.6439 7.79628 17.1907 255 255 255
 13.043 7.92229 17.5655 255 255 255
0.00552074    7.81584    16.9751 255 255 255
-2.09673  7.74421  16.4509 255 255 255
 7.0938 7.74591 16.6856 255 255 255
0.81937 7.76137 16.5057 255 255 255
1.46504  7.8178 16.5527 255 255 255
-2.26982  7.74338  16.2762 255 255 255
-3.86753  7.73648  16.1372 255 255 255
3.55292 7.79123 16.4221 255 255 255
-1.79659  7.73227  15.9648 255 255 255
5.17558 7.83102 16.2973 255 255 255
5.48786 7.85147 16.3629 255 255 255
10.8778 7.91133 16.5731 255 255 255
-2.91075  7.75904  15.9112 255 255 255
0.936081  7.74408  15.9445 255 255 255
2.22976 7.75631 16.0021 255 255 255
6.63019  7.7811 15.7328 255 255 255
3.41375 7.79537 15.6243 255 255 255
-0.685144   7.72891   15.3485 255 255 255
8.65773 7.89654 15.9834 255 255 255
0.616861  7.75425  15.3361 255 255 255
9.05346 7.84986 15.6198 255 255 255
-3.7191 7.70256 15.1754 255 255 255
-1.6709 7.68438 14.8506 255 255 255
-1.15241  7.66493  14.6371 255 255 255
10.0618 7.79193 14.9714 255 255 255
6.27619 7.81842 15.0919 255 255 255
-0.0264121    7.70987    14.5155 255 255 255
-1.34889  7.64952  14.2302 255 255 255
 5.4652 7.76353 14.6242 255 255 255
-0.990979   7.68163   14.1674 255 255 255
7.96894 7.78789 14.5732 255 255 255
7.27547 7.78118 14.5189 255 255 255
-3.08007  7.61823  13.9305 255 255 255
8.33669 7.75458 14.4244 255 255 255
3.99693  7.7084 14.1407 255 255 255
-1.01261  7.64832  13.6522 255 255 255
5.98327 7.73358 13.9671 255 255 255
-1.82331  7.59339  13.4339 255 255 255
4.82688 7.72568 13.8456 255 255 255
0.762659  7.61019   13.454 255 255 255
-1.03141  7.63464  13.3596 255 255 255
-2.47242  7.58158  12.9452 255 255 255
-1.49472   7.5794  12.9074 255 255 255
4.16785 7.67308 13.1265 255 255 255
-2.80371  7.56544   12.748 255 255 255
-0.382985   7.61638   12.8871 255 255 255
2.20279 7.53957 12.5272 255 255 255
-1.85566  7.56201  12.4131 255 255 255
-4.0092 7.55613 12.3278 255 255 255
-1.9921 7.54635 12.2234 255 255 255
-1.20491  7.56885  12.2778 255 255 255
 3.3304 7.64383 12.4708 255 255 255
-2.64708  7.51036  12.1193 255 255 255
4.15911 7.64031 12.4515 255 255 255
-2.16237  7.54486  12.1501 255 255 255
-3.12458  7.53741  12.0214 255 255 255
4.63558 7.60886 12.2794 255 255 255
-2.15714  7.52532  11.9258 255 255 255
0.24572 7.60061 12.1029 255 255 255
5.29412 7.66756 12.3048 255 255 255
-0.723694   7.55859   11.9286 255 255 255
1.53854 7.58426 12.0112 255 255 255
-2.34061  7.53821  11.7514 255 255 255
-1.04205  7.51528  11.7339 255 255 255
0.885015  7.54988  11.7096 255 255 255
4.80184  7.6375 11.8463 255 255 255
-1.19479  7.51089  11.4871 255 255 255
-1.38191  7.52868  11.4771 255 255 255
-0.732089   7.51337   11.4438 255 255 255
0.555114  7.55716  11.5226 255 255 255
6.95981  7.6561 11.8124 255 255 255
-3.60689  7.46835  11.1119 255 255 255
4.32413  7.6236 11.5265 255 255 255
1.83664 7.55339 11.3258 255 255 255
-2.65978  7.45966  11.0246 255 255 255
1.83458  7.5591 11.0044 255 255 255
 3.2998 7.56376 10.9277 255 255 255
-1.70009  7.45921  10.6343 255 255 255
0.225857  7.49816  10.6664 255 255 255
-0.593792   7.48009   10.4997 255 255 255
1.35656 7.48745 10.3388 255 255 255
4.92626 7.54424 10.5043 255 255 255
4.29338 7.54109 10.3329 255 255 255
2.32673 7.51405 10.2078 255 255 255
2.32247 7.51768 10.0535 255 255 255
0.693338  7.47702  9.88674 255 255 255
3.63438 7.53407  10.043 255 255 255
4.28641 7.55083 10.0569 255 255 255
0.620862  8.40476  30.8171 255 255 255
3.38647 8.64914 31.7672 255 255 255
-2.70843  8.46029  30.1934 255 255 255
-0.703985   8.51326   30.4527 255 255 255
4.38088 8.67411 29.7109 255 255 255
8.52874 8.39831  28.959 255 255 255
7.55126 8.44746 29.0582 255 255 255
3.05678 8.35458 28.3362 255 255 255
12.3002 8.39162 28.6661 255 255 255
8.56821 8.32465  27.213 255 255 255
16.4635 8.30122  27.349 255 255 255
2.34984 8.40622 25.7902 255 255 255
16.9713 8.60712  26.649 255 255 255
4.32037 8.31427 25.2464 255 255 255
9.37751 8.22497 24.8429 255 255 255
7.66656 8.19556 24.2928 255 255 255
 3.2655 8.10143 23.0951 255 255 255
17.6358 8.14126 23.5605 255 255 255
8.83917 8.15048 21.9482 255 255 255
2.42256 8.09566 21.1535 255 255 255
-2.85641  8.17098   20.572 255 255 255
-2.50362  7.82565  19.4285 255 255 255
10.2539 8.01018 20.0733 255 255 255
 6.1893 7.90433 19.5869 255 255 255
12.0068 8.12228 19.9507 255 255 255
3.66262 7.90153 18.8831 255 255 255
10.8958 8.01576 19.1044 255 255 255
-0.231205   7.88115   18.1896 255 255 255
-3.42132  7.87404  18.0001 255 255 255
2.98938 7.88317 18.0728 255 255 255
11.3653 7.92505 18.3956 255 255 255
-2.23636  7.78761  17.3766 255 255 255
13.0308 7.91659 17.5369 255 255 255
0.498407  7.87829  17.2445 255 255 255
-1.8821 7.77809  16.648 255 255 255
-1.59429   7.7933  16.6487 255 255 255
-2.68992  7.65553  16.2966 255 255 255
-3.84838  7.72528  16.0916 255 255 255
-0.148439   7.73915   16.0969 255 255 255
7.19235 7.96071 16.6436 255 255 255
2.30716 7.70684 15.8005 255 255 255
-2.42554  7.66239  15.4656 255 255 255
-1.94288  7.73018  15.6023 255 255 255
 8.7871 7.78706 15.7397 255 255 255
 8.5966 7.86906 15.8827 255 255 255
3.13928 7.77865 15.5811 255 255 255
2.69236 7.89797 15.7338 255 255 255
4.47638 7.82542 15.3395 255 255 255
11.5684 7.88041 15.6432 255 255 255
-3.46524  7.64328  14.7023 255 255 255
1.42205 7.77139 15.0213 255 255 255
-3.90806  7.59223   14.483 255 255 255
-1.42267  7.67023  14.7064 255 255 255
5.43451 7.72446 14.5347 255 255 255
 8.3519  7.7383 14.4036 255 255 255
-3.89363  7.57702  13.5862 255 255 255
0.945745  7.60308  13.6784 255 255 255
-3.06561   7.5382  13.3244 255 255 255
4.23001 7.70277 13.7431 255 255 255
7.96545  7.7182 13.5754 255 255 255
8.15896 7.64139  13.259 255 255 255
-3.96571  7.61447  12.7198 255 255 255
5.19131 7.65533 12.9148 255 255 255
-2.52235  7.50867  12.4443 255 255 255
-3.60427  7.57404   12.511 255 255 255
5.47524 7.65731 12.7774 255 255 255
 8.4018 7.68204 12.7381 255 255 255
-1.21307  7.57532  12.2783 255 255 255
3.05191  7.6656 12.4178 255 255 255
 7.3638 7.76023  12.665 255 255 255
 4.9938 7.55116 11.7052 255 255 255
4.63737 7.69742 11.7186 255 255 255
-3.05562  7.45398  11.1804 255 255 255
2.35961 7.55378 11.4068 255 255 255
 7.0791  7.5681 11.5214 255 255 255
0.215283   7.4698  11.1765 255 255 255
-1.86243  7.48364  11.0969 255 255 255
2.50973 7.58456 11.2377 255 255 255
2.84239 7.61293 11.2548 255 255 255
5.30337 7.61799 11.1993 255 255 255
-1.70026  7.45244  10.6334 255 255 255
7.12303 7.61489  11.062 255 255 255
3.07533 7.59301 10.8854 255 255 255
6.08123 7.63426 10.9199 255 255 255
-3.18678  7.40731  10.0504 255 255 255
2.15826  7.5435 10.2906 255 255 255
0.701806  7.47062  10.1349 255 255 255
1.35294 7.49881 10.1438 255 255 255
3.63982 7.51431 10.2134 255 255 255
0.525329  7.46468  9.99229 255 255 255
3.34752 7.45298 10.0574 255 255 255
6.10826 7.59943 10.2951 255 255 255
-3.39396  8.05832  22.5603 255 255 255
14.1428 8.22841  23.302 255 255 255
-0.448946   8.01613   22.1089 255 255 255
7.08828 8.07579 22.3169 255 255 255
1.47026 8.03722 21.5877 255 255 255
 -1.627 8.04044 21.4637 255 255 255
7.13728 8.10225 21.6915 255 255 255
-2.29075  7.76263  16.2779 255 255 255
3.43232 7.75776 15.5817 255 255 255
0.630521  7.80386   15.355 255 255 255
-1.13314  7.65693  14.6627 255 255 255
-0.951549   7.68223   14.1648 255 255 255
-0.189697   8.35929    30.784 255 255 255
0.603583  8.40761  30.9314 255 255 255
3.35211 8.45022 31.2623 255 255 255
10.9836  8.1709 30.0056 255 255 255
7.19057  8.1813 29.5703 255 255 255
-2.65974  8.53111  30.0176 255 255 255
-0.756646   8.54686   30.2095 255 255 255
1.16918 8.53475 29.8041 255 255 255
6.57375 8.41207 28.8968 255 255 255
4.43182 8.59213 29.3267 255 255 255
8.50507 8.45001 28.9238 255 255 255
2.77281 6.91076 23.6891 255 255 255
7.50005 8.43517 28.7857 255 255 255
5.71676  8.1832 27.1525 255 255 255
11.9269 8.21521 27.8428 255 255 255
18.1728 8.51868  28.606 255 255 255
15.7355 8.56707 28.5446 255 255 255
3.54422 8.52137 27.8018 255 255 255
16.4167 8.18448 27.2016 255 255 255
8.54214  8.2863 27.1849 255 255 255
-3.59284  8.29718  26.1126 255 255 255
10.4048 8.39126 26.7239 255 255 255
15.9685 8.60874 27.0767 255 255 255
2.37272 8.45016 25.9212 255 255 255
4.29041  8.3643 25.4768 255 255 255
16.5598 8.45182 26.0867 255 255 255
9.21583 8.15707 24.5709 255 255 255
0.0395013   8.14011   24.2494 255 255 255
7.68329 8.10452 24.0855 255 255 255
-0.457998    8.1571   23.9128 255 255 255
15.4912 8.46513 25.1426 255 255 255
 12.402  8.2573 23.8495 255 255 255
3.24479 8.14547  23.013 255 255 255
7.88703 8.00607 21.9824 255 255 255
-1.61674  8.00787  21.3652 255 255 255
9.35958 8.13689 21.8662 255 255 255
7.12275 8.08599 21.6436 255 255 255
8.77648 8.16596 21.8593 255 255 255
-3.66539  8.03929  21.1454 255 255 255
2.43229 8.13449 21.2962 255 255 255
15.1945 8.03782 21.4069 255 255 255
11.7349 8.09345 20.8945 255 255 255
-3.78939  7.94209  20.0582 255 255 255
-0.903765   7.80366   19.7466 255 255 255
12.7344 8.03853 20.1914 255 255 255
9.41914 8.07488 20.0841 255 255 255
11.1094 8.12603 20.0209 255 255 255
-3.43444  7.86878  18.8935 255 255 255
11.8336  8.0284 19.6065 255 255 255
 3.5979 7.71592 18.5639 255 255 255
10.9814 8.04857 19.2447 255 255 255
7.57842 7.86408 18.6229 255 255 255
1.92752 7.84129 18.2322 255 255 255
11.2411  8.1214 19.0779 255 255 255
11.5734 8.01889 18.7063 255 255 255
-3.41939  7.77857  17.7453 255 255 255
0.720162  7.92299  18.2087 255 255 255
-0.213417   7.85229   18.0791 255 255 255
-1.96161  7.72012  17.5645 255 255 255
7.73977  7.8852 18.1738 255 255 255
3.01223 7.84045 18.0279 255 255 255
3.57027 7.85748 17.8852 255 255 255
12.7293 8.06131 18.5333 255 255 255
4.80273 7.94955  17.775 255 255 255
-2.2988 7.81422 17.4423 255 255 255
0.586826  7.68433  16.7954 255 255 255
0.00342075    7.79026    16.8589 255 255 255
1.60059 7.86725 16.9746 255 255 255
7.16839 7.79882 16.9274 255 255 255
11.9049 7.93004 17.3151 255 255 255
-2.69151  7.74549  16.4885 255 255 255
-1.58255  7.92063  16.8306 255 255 255
0.948904  7.86589   16.782 255 255 255
8.36729 7.91771 16.7523 255 255 255
-0.151134   7.73853   16.0664 255 255 255
7.06089 7.79995 16.1859 255 255 255
2.30302 7.67293 15.6757 255 255 255
-1.97001  7.76073  15.7146 255 255 255
1.52217 7.83468 16.1083 255 255 255
4.62673  7.7915 15.9301 255 255 255
9.98546 7.88911 16.2269 255 255 255
10.8701 7.95187 16.2156 255 255 255
5.07331 7.75714 15.5915 255 255 255
8.76044 7.75168  15.652 255 255 255
4.72473 7.74576 15.1801 255 255 255
 1.4468 7.76372 15.0359 255 255 255
-3.40398  7.61192  14.6032 255 255 255
2.01408 7.60569 14.7138 255 255 255
-3.90269   7.6134  14.4651 255 255 255
-1.71982  7.69359  14.6319 255 255 255
8.90934 7.75129 14.9564 255 255 255
2.47258  7.7264 14.5341 255 255 255
7.72275 7.90617 15.1293 255 255 255
 8.4585 7.78813 14.5251 255 255 255
4.24226 7.82175 14.6266 255 255 255
1.89821 7.73185 14.2278 255 255 255
-3.92263  7.66201  13.7772 255 255 255
5.51559 7.74403 14.0093 255 255 255
-3.10082  7.57842  13.4411 255 255 255
3.82951 7.71747  13.766 255 255 255
-2.15709  7.60681  13.3766 255 255 255
-1.2359 7.74168 13.6157 255 255 255
5.03772 7.72972 13.6599 255 255 255
2.91533 7.70056 13.5058 255 255 255
5.70068  7.6565 13.4474 255 255 255
7.97253  7.6813 13.5701 255 255 255
-4.10201  7.55263  13.0482 255 255 255
-3.51019  7.58733  13.0962 255 255 255
-2.83336   7.5752  13.1084 255 255 255
5.92822 7.69128 13.3894 255 255 255
3.99347 7.68149 13.3003 255 255 255
0.469981  7.65924   13.098 255 255 255
-1.89502   7.5561  12.8172 255 255 255
6.08112 7.74604 13.2581 255 255 255
8.41028 7.67092 13.0657 255 255 255
-4.01913  7.71775  12.7976 255 255 255
3.06305 7.59629 12.7396 255 255 255
 2.3049 7.63632 12.7669 255 255 255
-4.15893  7.52341  12.1617 255 255 255
6.45487 7.65602 12.6407 255 255 255
-1.20705  7.57181  12.2256 255 255 255
0.902048     7.58  12.1798 255 255 255
7.30775 7.74905 12.5936 255 255 255
-2.43373  7.56973  12.0235 255 255 255
5.46544 7.60964 12.2551 255 255 255
7.56842 7.66891 12.1994 255 255 255
 7.2873  7.6866 12.2182 255 255 255
-2.81727   7.4829    11.63 255 255 255
-1.28572   7.5268  11.6754 255 255 255
2.80496 7.61204 11.8653 255 255 255
-2.29835  7.55306  11.6191 255 255 255
0.317272  7.52405   11.616 255 255 255
-2.53563  7.60042  11.6191 255 255 255
1.71882 7.58111 11.6364 255 255 255
-3.07631  7.45072  11.2462 255 255 255
0.173453  7.51967  11.2949 255 255 255
 2.3871 7.57472 11.4851 255 255 255
5.56237 7.63368 11.5913 255 255 255
-1.86705  7.45266  11.0748 255 255 255
7.15093 7.61521 11.5912 255 255 255
-2.2258 7.46464 11.0289 255 255 255
2.54595 7.58939   11.26 255 255 255
3.54931  7.5583 11.0284 255 255 255
5.30128 7.62487 11.2005 255 255 255
0.561466  7.52602   10.875 255 255 255
2.09972 7.54846 10.9338 255 255 255
 3.9683 7.57037 11.0086 255 255 255
-1.70973  7.46716  10.6591 255 255 255
-1.37327  7.48731  10.7095 255 255 255
 3.3044 7.57745 10.9413 255 255 255
7.10772 7.61159  11.045 255 255 255
3.06942 7.58777 10.9019 255 255 255
6.83613 7.65122 11.0646 255 255 255
-3.78915  7.37681  10.4035 255 255 255
5.65542 7.56354 10.8614 255 255 255
6.26047 7.56782 10.8422 255 255 255
-3.33023  7.51928  10.5418 255 255 255
 -2.871 7.35491 10.3065 255 255 255
 1.8418  7.5341 10.6725 255 255 255
6.05543 7.63557 10.9011 255 255 255
-3.57064  2.94617  11.9588 255 255 255
2.20843 8.25932 30.6344 255 255 255
-1.07627  8.54879  30.5942 255 255 255
6.47178 8.81184 30.0283 255 255 255
11.4148 7.82938 26.4536 255 255 255
15.5395 8.53075 28.6074 255 255 255
9.95573 7.84062 25.7097 255 255 255
2.44405 8.96154 27.6388 255 255 255
3.31872 8.35959 23.5772 255 255 255
7.79859 8.24488 22.8842 255 255 255
-3.56428   7.9245  20.7447 255 255 255
-1.0495 7.95388 20.1687 255 255 255
5.42986  7.9335 18.9562 255 255 255
7.86515 7.82783 16.9693 255 255 255
-3.83021  7.65159  15.9721 255 255 255
-1.91482  7.57144  15.3522 255 255 255
-4.17948  7.68613  15.5826 255 255 255
2.03243 7.71674 15.0053 255 255 255
-2.5135 7.54127 11.5772 255 255 255
6.06237 8.49769  29.012 255 255 255
-1.62975  7.64196  25.5709 255 255 255
8.44412 8.35509 27.7904 255 255 255
3.34244 8.54866 26.7325 255 255 255
-4.04031  7.84453  23.7867 255 255 255
2.18275 8.37874 25.5271 255 255 255
2.54204 8.07308 24.2247 255 255 255
-3.65269  8.12725  21.6157 255 255 255
5.29859 7.76977 18.7415 255 255 255
-0.182652   7.84773   17.5037 255 255 255
-4.27537  7.73179  15.7651 255 255 255
-3.20923  7.40947  14.0109 255 255 255
-4.08484  7.88739  14.5801 255 255 255
7.85232  8.1343 27.1591 255 255 255
-0.328808   7.90752   17.7879 255 255 255
7.99065 7.89863 17.0712 255 255 255
5.74236 8.19366  27.079 255 255 255
7.81075 8.08755 26.9998 255 255 255
-1.78934  8.52331    28.95 255 255 255
-2.77646  8.21032  26.9662 255 255 255
  3.72459 -0.688108   30.4381 255 255 255
  3.15671 -0.453733   29.9336 255 255 255
  4.30828 -0.315398   29.7611 255 255 255
   4.7304 -0.291873   30.0203 255 255 255
  4.52798 -0.081675    29.936 255 255 255
  4.5173 0.443309  29.8229 255 255 255
 3.45591 0.663361  29.8497 255 255 255
16.4031 3.57165 29.4599 255 255 255
3.86562 1.22789 29.7176 255 255 255
0.0363022   4.15772   30.7679 255 255 255
6.80448 8.37548  27.244 255 255 255
3.93043 7.94178 18.5704 255 255 255
2.69129 7.90173 17.8006 255 255 255
-1.9163 7.78221 17.1757 255 255 255
0.828942  7.83635  17.2233 255 255 255
8.40176 7.68258 12.7383 255 255 255
-3.54201 -5.11579  31.3653 255 255 255
   3.8803 -0.541267   29.9407 255 255 255
4.23075 0.10489   29.88 255 255 255
16.4001 1.31538 30.4048 255 255 255
15.1762 2.59267 29.0565 255 255 255
 17.389 2.58167 29.6365 255 255 255
16.2218 3.21598 29.9466 255 255 255
16.8839 3.19154 29.7243 255 255 255
1.01281 8.23893 26.1318 255 255 255
-1.18821  8.06964  21.8584 255 255 255
12.6922 8.03669 20.1766 255 255 255
9.18268 7.79559 14.8798 255 255 255
-4.1103 7.59342 13.0949 255 255 255
3.04521 7.63192 12.7911 255 255 255
-2.10904  7.55391  12.4603 255 255 255
0.560476   7.5331  10.9476 255 255 255
-3.78621  7.41713  10.4526 255 255 255
-3.15074   7.3423  10.2272 255 255 255
   4.28995 0.00920768    29.8139 255 255 255
  3.88752 -0.504769   29.8777 255 255 255
 3.86276 0.816258  29.7705 255 255 255
4.88597 1.05658 29.7647 255 255 255
4.10819 1.27924 29.6158 255 255 255
17.0728  1.3944  30.182 255 255 255
4.68877 1.63888 29.7988 255 255 255
17.2869 1.63275 29.8963 255 255 255
17.4498 2.63388 29.8375 255 255 255
 16.699 3.08397 29.3739 255 255 255
16.3139 3.16785 30.1621 255 255 255
15.0014 2.57273  28.533 255 255 255
-3.53223  8.63964  30.5524 255 255 255
-0.420708   8.09051    20.538 255 255 255
-2.68487  8.00207  20.0638 255 255 255
6.08784 7.93009 19.5846 255 255 255
7.08474 7.93954 18.5785 255 255 255
1.19603 7.79358 16.2401 255 255 255
2.60999 7.89309 15.6213 255 255 255
5.95123 7.75901 14.9096 255 255 255
5.43717 7.70864 14.4783 255 255 255
4.24432  7.6951 13.8202 255 255 255
3.61145 7.69477  13.178 255 255 255
7.66823 7.69898 12.7976 255 255 255
-1.70779  7.52764   11.931 255 255 255
6.71679 7.63777 11.8259 255 255 255
-0.441977   7.48537   11.0863 255 255 255
-3.36302 -4.40144  32.1351 255 255 255
-3.8519 2.30612  13.997 255 255 255
1.56988 8.03765 26.5451 255 255 255
7.84892 7.68047 25.5559 255 255 255
-3.19088  7.47499  11.3603 255 255 255
16.8186 2.70549 29.8539 255 255 255
15.7784 1.67395 29.2522 255 255 255
16.1057 2.73546  29.692 255 255 255
 2.2442 7.78247 29.1872 255 255 255
-3.1433 8.35418 27.8353 255 255 255
2.64956 9.21246  27.889 255 255 255
2.65202  9.0782 27.4437 255 255 255
-2.57662   3.6382  26.4932 255 255 255
-2.50607  3.34989  28.3008 255 255 255
 4.83944 0.349919   29.555 255 255 255
12.2521 8.14795 23.5497 255 255 255
2.42635 7.87839 17.6366 255 255 255
2.85574 7.69045 14.0881 255 255 255
5.95339 7.70497 13.4082 255 255 255
4.81214 7.69477 12.2406 255 255 255
16.7374 1.43321 31.1179 255 255 255
2.31492 8.39865 30.7226 255 255 255
4.83418 7.91259 18.5105 255 255 255
-1.41641  7.65213  14.7176 255 255 255
-3.06196  7.53816  12.6893 255 255 255
5.01379  7.5415 11.6916 255 255 255
16.3954 2.96388 30.4518 255 255 255
16.6546 2.76666 29.2111 255 255 255
-2.39052  7.54685  12.0426 255 255 255
9.94875 7.83753 25.5793 255 255 255
-4.20394  2.91252  14.1975 255 255 255
2.02588 7.39202 10.7512 255 255 255
10.1713 7.81281 19.7074 255 255 255
3.11272 7.77131 15.5537 255 255 255
-2.13917  7.69122  12.6563 255 255 255
2.87084 7.55866 11.1727 255 255 255
-2.9357  3.3051 24.9415 255 255 255
6.99056 7.78863  18.314 255 255 255
0.703931  7.89588  18.1931 255 255 255
-3.87591  7.51532  11.1974 255 255 255
9.16573  7.7364 14.7654 255 255 255
 4.22879 0.687885  29.7835 255 255 255
-1.25735  7.84972  13.8445 255 255 255
-3.40318  8.55983  30.0134 255 255 255
 4.94738 0.649226  30.5609 255 255 255
 3.45201 0.577935  29.8178 255 255 255
  3.83162 -0.645378   29.9061 255 255 255
